ply
format ascii 1.0
element face 0
property list uchar int vertex_indices
element vertex 922
property float x
property float y
property float z
property uchar diffuse_red
property uchar diffuse_green
property uchar diffuse_blue
end_header
-2.486373e-01 -9.675999e-01 -4.162195e+00 122 94 10
1.281903e-01 -1.273253e+00 -4.019712e+00 153 115 32
-1.791511e-01 -1.276922e+00 -4.111101e+00 210 196 107
-4.383365e-01 4.061213e-01 -4.512609e+00 218 230 91
-4.387991e-01 4.047724e-01 -4.503223e+00 218 230 91
-1.325353e-01 3.371735e-01 -4.311661e+00 85 98 0
-7.052975e-01 -8.201989e-01 -4.530534e+00 131 103 9
2.200569e-02 -1.089929e+00 -3.999503e+00 194 144 65
-2.733630e-01 4.660804e-01 -4.528182e+00 71 84 0
-3.914027e-01 2.460602e-01 -4.419579e+00 78 74 0
-7.949299e-02 -1.358643e-01 -3.692312e+00 205 197 33
1.728624e+00 -1.278609e+00 -4.147917e+00 207 216 123
-3.893965e-01 -1.280308e-03 -4.174383e+00 166 198 39
-1.804206e-02 -4.899371e-01 -3.685618e+00 199 166 69
5.036565e-01 -2.649250e-01 -3.859924e+00 93 107 5
-3.320004e-01 2.879878e-01 -4.287668e+00 81 77 5
1.159486e-01 -4.390508e-01 -3.654524e+00 148 132 31
5.046603e+00 7.295423e+00 -2.099810e+01 167 159 52
3.688154e+00 7.390713e+00 -2.126267e+01 170 158 48
8.737470e-01 -9.730789e-01 -4.203881e+00 162 139 59
-4.081617e-01 -9.183734e-01 -4.279697e+00 201 183 88
4.654232e-01 -5.812619e-01 -3.763752e+00 147 95 19
6.241427e-01 -8.473658e-01 -4.010730e+00 160 144 66
1.045443e+00 -1.075713e+00 -4.339674e+00 160 122 49
-2.106982e-01 -9.765462e-02 -3.837865e+00 82 85 0
2.088824e-01 7.319387e-01 -3.352629e+00 190 201 73
-6.328724e-01 -1.078018e+00 -4.529910e+00 213 196 104
9.247784e-02 -1.054561e+00 -3.978699e+00 161 112 33
4.952914e-01 -2.510947e-01 -3.788675e+00 103 115 11
4.261956e-01 1.411036e+00 -4.569005e+00 104 115 2
-3.387364e-01 4.629342e-01 -4.570771e+00 111 122 8
2.841613e-02 -7.724994e-02 -3.602123e+00 142 133 0
1.121037e-01 6.616785e-01 -3.370171e+00 165 173 44
1.067110e+00 8.015890e-01 -4.535042e+00 218 223 127
-7.358056e-01 -1.034546e+00 -4.596554e+00 209 190 92
-4.737401e-01 -9.397745e-01 -4.294533e+00 160 134 41
7.957523e+00 8.933222e+00 -3.034726e+01 175 158 50
3.590524e-01 -1.187858e+00 -4.092072e+00 158 119 42
2.248521e+00 -6.881695e-01 -5.212635e+00 202 207 115
2.086891e+00 -7.571413e-01 -5.051506e+00 205 215 119
-4.269190e-01 3.748503e-02 -4.187179e+00 135 158 10
5.990525e+00 7.777637e+00 -2.184575e+01 190 183 78
6.575195e+00 7.956428e+00 -2.241072e+01 183 177 67
1.434911e-01 2.571262e-01 -3.907409e+00 161 154 27
1.578656e+00 6.501209e+00 -1.838785e+01 184 171 57
8.324487e+00 7.704684e+00 -2.314683e+01 175 162 58
2.794512e-01 5.597204e+00 -1.760415e+01 197 180 61
6.097176e-01 -1.642426e+00 -4.117867e+00 209 212 121
-5.684559e+00 1.081528e+01 -3.044670e+01 174 162 50
-6.190726e-01 4.124426e+00 -1.219714e+01 184 167 49
-4.992836e-01 -1.014093e-01 -4.141742e+00 145 161 26
-6.429102e-01 -6.015351e-01 -4.400076e+00 184 135 43
9.659642e-01 5.208310e-01 -4.454535e+00 211 217 108
-2.314691e-01 -7.958809e-01 -4.044929e+00 201 168 78
-1.223147e-02 1.400244e+00 -4.420585e+00 160 165 37
1.580392e+00 -1.353940e+00 -3.922865e+00 204 209 117
6.442984e-01 -1.256257e+00 -4.224541e+00 157 141 63
-3.258549e+00 3.693828e+00 -1.024918e+01 163 148 29
6.333391e-01 1.413949e+00 -4.538624e+00 125 130 30
-1.360493e+01 -1.242630e+01 4.886834e+01 181 163 51
7.957183e+00 7.513717e+00 -2.175572e+01 169 160 55
2.015037e-01 1.587459e+00 -4.290884e+00 215 221 121
2.011725e+00 -4.000771e+00 -9.266953e+00 213 215 131
8.500091e+00 7.958438e+00 -2.241429e+01 185 171 74
5.316426e-01 -3.743906e-01 -3.817938e+00 144 129 36
2.408020e-01 5.046035e+00 -1.636542e+01 193 179 60
9.069967e-01 1.178009e+00 -4.630770e+00 120 125 7
8.988292e-01 7.503053e-01 -4.552323e+00 94 100 0
-4.475579e-01 6.021214e-01 -4.532768e+00 183 195 69
-5.660438e-01 4.865528e-01 -4.683058e+00 180 200 75
-2.330134e-01 4.619395e-01 -4.560198e+00 89 106 5
-4.112750e-02 4.185631e-01 -4.151956e+00 193 204 76
-4.146414e-02 4.181392e-01 -4.148961e+00 193 204 76
-2.948633e-01 2.271576e-01 -4.340767e+00 119 111 19
-1.724862e-01 2.039209e-01 -4.284247e+00 123 114 17
1.417472e+00 -1.363073e-03 -5.071753e+00 169 144 57
-9.804208e-02 -1.117979e-01 -3.712646e+00 185 176 12
1.048904e+00 -4.496284e-01 -3.900496e+00 155 102 24
-6.508904e-01 -9.746043e-01 -4.533576e+00 193 163 73
-2.582438e-01 -1.070144e+00 -4.252279e+00 168 131 45
4.324696e-01 -1.016828e+00 -3.994486e+00 143 117 42
-6.899214e+00 5.597123e+00 -1.601425e+01 191 175 67
5.744739e-01 1.349437e+00 -4.515568e+00 110 112 6
4.140737e-01 1.266670e+00 -4.464178e+00 109 112 9
8.384851e-01 1.219195e+00 -4.591430e+00 107 110 5
8.607633e-01 1.026776e+00 -4.502530e+00 117 122 4
9.202563e-01 9.671382e-01 -4.515156e+00 119 126 14
9.531840e-01 9.199178e-01 -4.479527e+00 128 133 17
8.522294e-01 9.081061e-01 -4.545837e+00 86 88 0
9.847493e-01 8.930789e-01 -4.430941e+00 104 108 1
2.109454e-01 6.543584e-01 -3.382590e+00 148 157 37
2.470479e-01 6.339716e-01 -3.292454e+00 138 145 31
9.704154e-01 6.619396e-01 -4.556588e+00 108 111 8
8.881023e-01 5.668261e-01 -4.433890e+00 107 106 6
8.804700e-01 5.435765e-01 -4.444466e+00 108 104 4
-1.081009e-01 4.959777e-01 -4.211080e+00 185 198 67
-5.216778e-01 5.037431e-01 -4.651985e+00 163 180 48
3.839240e-01 3.626607e-01 -3.770778e+00 78 44 6
2.417198e-01 3.458136e-01 -3.950192e+00 108 82 1
-3.154063e-02 2.955556e-01 -4.204043e+00 203 216 82
8.069532e-01 2.768887e-01 -4.175004e+00 131 140 32
9.469813e-01 3.082734e-02 -4.105304e+00 123 119 30
3.635953e-01 -3.551015e-02 -3.940690e+00 97 111 0
7.228813e-01 -4.915930e-02 -3.954774e+00 109 131 5
-7.092874e-01 -9.791505e-02 -4.264939e+00 183 173 62
4.170538e-01 -8.077265e-02 -3.811854e+00 110 113 23
3.873413e-01 -1.038771e-01 -3.861514e+00 97 102 1
4.383273e-01 -1.128151e-01 -3.813172e+00 86 81 0
7.004031e-01 -1.225845e-01 -3.926213e+00 112 138 3
5.677642e-01 -1.896330e-01 -3.848855e+00 99 118 1
-8.246416e-02 -1.902281e-01 -3.519373e+00 145 143 4
-7.941983e-01 -2.547575e-01 -4.262592e+00 204 172 73
-2.537487e-02 -2.271681e-01 -3.728896e+00 113 118 3
-6.844848e-01 -4.724090e-01 -4.216044e+00 195 146 51
4.144959e-01 -5.669344e-01 -3.726628e+00 163 111 35
-2.960703e-01 -6.564250e-01 -4.010659e+00 189 142 52
-4.679859e-01 -7.030049e-01 -4.258036e+00 179 134 46
-4.815978e-01 -8.249389e-01 -4.316360e+00 183 153 60
1.158585e+00 -8.228928e-01 -4.293664e+00 145 121 47
-4.099930e-01 -8.301917e-01 -4.269723e+00 190 156 66
-3.240737e-01 -8.607893e-01 -4.201965e+00 186 159 67
-1.270694e-01 -8.163928e-01 -3.964105e+00 185 155 65
3.806620e-01 -8.972618e-01 -3.955662e+00 130 99 23
6.707767e-01 -9.406021e-01 -4.088675e+00 140 122 46
7.852875e-01 -1.085704e+00 -4.188667e+00 148 125 47
-2.912583e+00 -1.163155e+00 -4.310262e+00 234 240 142
-5.678430e+00 3.581139e+00 -1.298567e+01 227 232 140
-1.327523e-01 1.479574e+00 -4.336046e+00 221 229 118
-1.215537e-01 1.445707e+00 -4.367317e+00 195 203 85
7.225955e-02 1.380861e+00 -4.652104e+00 217 225 113
6.066134e-01 1.323125e+00 -4.496126e+00 99 96 6
4.432679e-01 1.280332e+00 -4.489689e+00 108 111 6
6.394435e-01 1.221014e+00 -4.517138e+00 97 94 14
9.634919e-01 1.103416e+00 -4.567162e+00 212 221 114
8.579569e-01 1.099525e+00 -4.586972e+00 99 101 0
9.441128e-01 1.059743e+00 -4.567064e+00 113 120 8
8.276719e-01 1.011363e+00 -4.528632e+00 91 93 0
1.004104e+00 9.620765e-01 -4.520066e+00 138 146 46
1.059888e+00 9.569379e-01 -4.479925e+00 207 219 122
9.604603e-01 8.623411e-01 -4.438372e+00 103 105 5
8.628350e-01 8.193176e-01 -4.598420e+00 84 84 0
5.658909e-02 6.905517e-01 -3.375154e+00 202 212 79
9.520754e-01 7.596224e-01 -4.501093e+00 105 106 12
-2.737331e-01 7.331381e-01 -4.229217e+00 190 201 71
9.611071e-02 6.102026e-01 -3.441747e+00 150 153 37
1.018155e+00 6.556440e-01 -4.521974e+00 104 113 7
1.018041e+00 6.085485e-01 -4.494112e+00 211 222 118
9.357275e-01 5.949228e-01 -4.456942e+00 114 117 10
9.219794e-01 5.089166e-01 -4.498683e+00 104 104 2
9.284882e-01 4.632831e-01 -4.486957e+00 223 227 122
-1.429484e-01 4.160356e-01 -4.370879e+00 152 169 46
-1.734062e-01 3.059888e-01 -4.417773e+00 131 142 22
-2.161987e-01 2.796977e-01 -4.378364e+00 114 118 1
-3.783820e-01 2.820633e-01 -4.412102e+00 96 93 12
-5.778408e-01 2.594061e-01 -4.601779e+00 138 149 23
4.755121e-01 2.471973e-01 -3.746423e+00 98 77 0
1.259565e-01 1.732881e-01 -3.957506e+00 171 172 29
-2.412776e-01 1.400793e-01 -4.278727e+00 110 109 0
6.372698e-01 1.353487e-01 -4.057624e+00 109 96 17
-4.393397e-01 7.773112e-02 -4.205615e+00 163 181 38
-5.276073e-01 5.012991e-02 -4.269191e+00 120 122 0
6.625194e-01 1.852715e-02 -4.023722e+00 80 94 0
-6.038949e-01 -8.077748e-03 -4.242962e+00 148 166 33
7.654206e-01 -3.350991e-02 -3.993542e+00 122 143 22
3.003795e-01 -1.378848e-01 -3.841780e+00 100 118 0
2.979107e-01 -1.345651e-01 -3.819715e+00 100 118 0
6.898990e-01 -1.576463e-01 -3.870280e+00 116 143 9
1.723835e-01 -2.839402e-01 -3.721629e+00 105 127 0
-7.257867e-02 -3.212079e-01 -3.776137e+00 132 139 16
1.177350e+00 -4.818475e-01 -3.983342e+00 173 135 51
-7.389151e-01 -6.707793e-01 -4.514677e+00 142 110 15
-5.735638e-01 -6.297379e-01 -4.249581e+00 184 141 47
2.484500e-02 -6.154301e-01 -3.620296e+00 190 140 53
5.452106e-01 -7.199427e-01 -3.899144e+00 147 111 31
1.086968e+00 -7.805137e-01 -4.246719e+00 147 105 31
-3.270637e-01 -8.113560e-01 -4.173687e+00 163 126 37
-7.027250e-01 -8.727009e-01 -4.526063e+00 175 144 52
6.907123e-02 -7.212079e-01 -3.635357e+00 152 112 25
3.980662e-01 -7.780840e-01 -3.892879e+00 145 107 30
-7.732493e-01 -9.362034e-01 -4.641267e+00 183 159 61
8.550019e-01 -8.419048e-01 -4.135212e+00 130 98 21
-2.801640e-01 -8.508633e-01 -4.140770e+00 157 127 40
-3.542840e-01 -9.048123e-01 -4.249244e+00 141 121 26
-4.229897e-01 -9.883384e-01 -4.303907e+00 182 155 66
-4.812863e-01 -1.025504e+00 -4.413210e+00 193 162 72
-3.400154e-01 -1.028153e+00 -4.262034e+00 155 128 39
-2.676029e+00 -1.084855e+00 -4.500015e+00 234 237 146
5.265791e-01 -1.018612e+00 -4.063590e+00 164 150 71
-1.729961e-01 -1.090922e+00 -4.140621e+00 184 144 61
8.540882e-01 -1.140797e+00 -4.290740e+00 153 126 49
7.682506e-01 -1.097899e+00 -4.045378e+00 150 123 47
-8.679387e-02 -1.199504e+00 -4.167999e+00 195 154 72
3.004286e-01 -1.301754e+00 -4.082828e+00 170 145 70
-5.919924e+00 4.114123e+00 -1.386669e+01 222 227 135
6.964129e-01 1.396612e+00 -4.543496e+00 106 110 15
5.259478e-01 1.394899e+00 -4.574679e+00 107 108 6
7.609317e-01 1.385196e+00 -4.616368e+00 211 221 125
7.629704e-01 1.326456e+00 -4.637748e+00 94 98 12
8.343579e-03 1.222818e+00 -4.263367e+00 202 212 79
8.007492e-01 1.132986e+00 -4.536193e+00 104 106 4
2.824297e-01 8.999143e-01 -3.500221e+00 219 229 97
7.902451e-01 1.044188e+00 -4.581791e+00 101 102 8
3.514929e+00 1.660998e+00 -9.515141e+00 210 215 121
9.514282e-01 1.001672e+00 -4.530843e+00 212 220 112
9.505056e-01 1.001733e+00 -4.516810e+00 212 220 112
-3.775154e-01 9.345073e-01 -4.282503e+00 212 227 102
8.492868e-01 9.520717e-01 -4.550386e+00 107 109 10
-4.290103e-01 7.144623e-01 -4.301993e+00 197 210 85
1.842945e-01 5.085331e-01 -3.487894e+00 98 86 2
-5.321682e-01 5.594396e-01 -4.627232e+00 123 138 12
7.712219e-01 4.419509e-01 -4.242681e+00 194 183 76
1.492314e-01 4.124493e-01 -3.543072e+00 121 108 4
5.625374e-01 4.157252e-01 -3.796967e+00 124 87 8
3.473807e-01 3.749236e-01 -3.797954e+00 79 47 0
4.994291e-01 3.476040e-01 -3.742315e+00 83 54 0
9.252639e-01 3.238372e-01 -4.272834e+00 181 198 86
-3.983590e-01 3.299547e-01 -4.433435e+00 93 93 0
5.260221e-01 2.498723e-01 -3.790617e+00 122 105 16
1.817663e-01 1.772162e-01 -3.943961e+00 136 129 0
-1.582102e-01 1.697384e-01 -4.244889e+00 100 88 0
-3.580769e-01 1.513757e-01 -4.332142e+00 145 151 27
1.357137e+00 1.200641e-01 -4.987683e+00 153 137 50
1.446868e+00 9.890295e-02 -5.122479e+00 215 210 119
6.820485e-01 1.087026e-01 -4.071541e+00 80 76 0
1.642113e-01 9.963828e-02 -4.016592e+00 136 129 0
-2.800204e-01 8.251340e-02 -4.234308e+00 168 188 38
9.497204e-01 6.918506e-02 -4.113767e+00 86 85 0
3.838956e-01 6.568653e-02 -3.951410e+00 94 99 11
-3.902184e-01 4.085605e-02 -4.199016e+00 129 163 2
9.016518e-01 3.977450e-03 -4.057492e+00 92 96 0
-6.686793e-01 -1.227030e-02 -4.295244e+00 144 159 30
1.865125e+00 -4.345274e-01 -5.666009e+00 195 208 116
-1.356881e-01 -2.750260e-01 -3.830887e+00 135 147 18
8.327084e-01 -3.164279e-01 -3.926654e+00 147 121 29
1.806216e+00 -6.257817e-01 -5.299163e+00 184 197 109
1.983391e+00 -6.394671e-01 -5.340350e+00 198 205 111
1.861425e+00 -6.600793e-01 -5.272719e+00 196 207 118
-7.743250e-01 -7.025767e-01 -4.496583e+00 216 208 111
-7.814043e-01 -8.336921e-01 -4.554926e+00 204 196 95
1.894923e+00 -9.153519e-01 -4.843748e+00 202 207 115
3.310589e-02 -6.925158e-01 -3.630346e+00 188 140 53
5.136124e-01 -7.573598e-01 -3.897287e+00 135 103 26
4.698641e-01 -8.497021e-01 -3.943469e+00 155 132 52
3.834990e-02 -9.047462e-01 -3.882465e+00 175 132 53
5.803695e-01 -1.042907e+00 -4.104291e+00 83 62 0
-2.732450e+00 -1.159892e+00 -4.582772e+00 229 232 141
2.960792e-01 -1.142811e+00 -4.071528e+00 149 102 30
1.169786e+00 -1.215879e+00 -4.303785e+00 169 168 86
-3.198627e-02 -1.258988e+00 -4.082565e+00 178 139 54
8.452334e-01 -1.336973e+00 -3.823683e+00 198 201 112
6.635632e-02 1.423312e+00 -4.380212e+00 213 221 111
-1.691430e-01 1.107368e+00 -4.272082e+00 220 232 97
3.360427e+00 1.507260e+00 -9.209517e+00 215 223 130
-2.296643e-01 7.870740e-01 -4.306529e+00 206 216 79
4.496879e-01 7.079285e-01 -3.523359e+00 132 143 21
-1.564945e-01 4.954607e-01 -4.365408e+00 189 205 76
-3.666029e-01 3.748666e-01 -4.465056e+00 184 191 62
-6.396724e-01 3.176072e-01 -4.818302e+00 212 230 113
5.922169e-01 2.841254e-01 -3.813170e+00 97 86 0
5.922169e-01 2.841254e-01 -3.813170e+00 97 86 0
3.484337e-01 1.742195e-01 -3.896844e+00 112 94 16
4.857939e-01 1.748706e-01 -3.844396e+00 97 82 1
-2.877353e-01 1.369885e-01 -4.285220e+00 110 115 0
9.911970e-01 1.217077e-01 -4.226550e+00 115 120 18
7.381754e-01 8.740594e-02 -4.102921e+00 110 121 19
1.192299e-01 -6.768998e-02 -3.722701e+00 128 125 3
1.006821e+00 -2.761761e-01 -3.961964e+00 156 128 36
-8.985381e-01 -3.095795e-01 -4.302101e+00 223 222 120
1.998950e+00 -8.111025e-01 -5.087176e+00 196 204 109
3.425760e-01 -5.730707e-01 -3.567925e+00 148 92 17
8.692896e-01 -7.113306e-01 -4.046908e+00 122 83 4
8.642949e-01 -6.983650e-01 -3.999796e+00 122 83 4
-2.749400e-01 -7.231707e-01 -4.027241e+00 151 110 22
-2.286694e-01 -7.862934e-01 -4.001136e+00 201 168 78
8.049226e-01 -8.849996e-01 -4.146713e+00 156 134 58
-1.373795e-01 -8.810231e-01 -3.989886e+00 210 190 99
3.310640e-01 -8.969965e-01 -4.008930e+00 145 107 31
2.548009e-01 -8.829691e-01 -3.904481e+00 149 109 31
9.330990e-02 -9.048897e-01 -3.914131e+00 150 107 28
7.846786e-01 -9.623777e-01 -4.162639e+00 105 89 8
-3.934006e-03 -9.454797e-01 -3.936456e+00 139 96 16
-7.050392e-02 -9.759445e-01 -3.984136e+00 177 137 54
-5.464728e-01 -1.106884e+00 -4.427520e+00 211 199 109
-2.285220e+00 -1.101540e+00 -4.362152e+00 228 228 138
1.646256e+00 -1.131010e+00 -4.473978e+00 192 198 112
9.285605e-01 -1.086025e+00 -4.231936e+00 157 122 46
1.782844e+00 -1.225015e+00 -4.198163e+00 208 219 127
7.685816e-01 -1.233762e+00 -4.192675e+00 162 153 76
1.174137e+00 -1.283026e+00 -4.184879e+00 183 187 102
9.446390e-01 -1.293206e+00 -4.133446e+00 176 175 93
3.295751e-02 -1.347932e+00 -4.066479e+00 203 184 97
-2.433397e-01 -1.308592e+00 -3.902063e+00 209 206 111
9.210557e-01 1.260592e+00 -4.658110e+00 105 112 3
5.922535e-02 1.169696e+00 -4.266360e+00 231 241 108
5.922535e-02 1.169696e+00 -4.266360e+00 231 241 108
-2.742008e+00 1.143196e+00 -8.188396e+00 221 231 132
2.336890e+00 1.135894e+00 -8.713715e+00 208 219 123
3.768742e-01 6.090434e-01 -3.513026e+00 90 86 0
-5.667687e-01 3.841036e-01 -4.574999e+00 148 168 34
1.292760e-01 3.512750e-01 -3.625277e+00 109 94 0
6.593658e-01 2.231909e-01 -4.081205e+00 165 153 53
3.971687e-01 1.949092e-01 -3.769568e+00 64 39 0
8.588904e-01 -4.190331e-02 -4.016779e+00 121 143 17
-7.451424e-01 -1.513932e-01 -4.180512e+00 200 179 76
1.104374e+00 -1.975806e-01 -4.085290e+00 160 128 45
2.079726e+00 -6.888432e-01 -5.245224e+00 197 207 111
-2.356965e+00 -8.163895e-01 -4.923300e+00 237 238 144
-7.239331e-02 -6.773943e-01 -3.683986e+00 188 140 55
1.026704e+00 -8.969203e-01 -4.247276e+00 146 108 33
-6.249532e-01 -1.005519e+00 -4.487636e+00 172 151 58
-9.018830e-01 -1.028282e+00 -4.509726e+00 210 215 115
5.929280e-01 -9.768697e-01 -4.099898e+00 161 152 73
1.756289e+00 -1.162237e+00 -4.388487e+00 207 217 128
1.438344e+00 -1.238884e+00 -4.320341e+00 192 202 113
-8.337253e-01 -1.234496e+00 -4.277442e+00 221 225 131
-2.101702e+00 -1.347307e+00 -3.782115e+00 229 232 141
2.072042e+00 -1.605989e+00 -3.734832e+00 214 217 126
-4.033789e+00 2.500496e+00 -1.074965e+01 219 225 129
3.756320e-01 1.216894e+00 -4.383628e+00 95 94 11
3.756320e-01 1.216894e+00 -4.383628e+00 95 94 11
-9.466966e-02 1.045488e+00 -4.198717e+00 237 247 110
2.125563e-01 8.670664e-01 -3.389473e+00 189 199 68
-8.827145e-02 9.018187e-01 -4.045305e+00 198 209 71
1.076744e+00 7.533620e-01 -4.539442e+00 210 222 124
4.591297e-01 6.005915e-01 -3.580867e+00 149 146 46
-5.111786e-01 6.574688e-01 -4.419684e+00 213 225 113
-7.466973e-02 2.516094e-01 -4.276839e+00 205 216 77
8.046625e-01 2.233766e-01 -4.263933e+00 89 87 3
-3.607293e+00 1.419145e-01 -6.415565e+00 229 235 139
-3.797187e-01 1.121131e-01 -4.240785e+00 156 173 36
9.114135e-01 4.608260e-02 -4.103305e+00 84 88 3
6.333153e-01 -4.843753e-02 -3.968600e+00 134 154 37
8.995058e-01 -1.748970e-01 -3.967415e+00 119 134 11
1.018803e+00 -1.937522e-01 -4.075030e+00 110 114 4
-1.632650e+00 -5.970130e-01 -5.263731e+00 219 225 127
1.927115e+00 -7.551889e-01 -5.301773e+00 194 204 114
1.851530e+00 -8.582008e-01 -4.987688e+00 197 206 113
-2.145872e+00 -8.455905e-01 -4.875961e+00 225 226 132
9.416190e-01 -8.057986e-01 -4.145196e+00 150 114 38
7.925777e-03 -7.246602e-01 -3.637550e+00 177 137 50
9.658256e-01 -9.533639e-01 -4.251370e+00 104 71 1
2.151642e+00 -1.263378e+00 -4.767212e+00 211 220 129
1.474928e+00 -1.295490e+00 -4.212727e+00 188 197 104
1.997259e+00 -1.330184e+00 -3.820814e+00 207 212 118
5.292551e-01 -1.391509e+00 -3.432868e+00 209 212 121
1.840692e+00 -1.423373e+00 -3.352393e+00 221 224 132
8.239741e-01 1.375967e+00 -4.667414e+00 211 221 124
-3.178558e+00 1.374753e+00 -8.057139e+00 222 227 133
4.792588e-01 7.931525e-01 -3.558425e+00 204 215 87
1.026609e+00 8.702994e-01 -4.642231e+00 99 101 1
3.150117e-01 4.529855e-01 -3.584970e+00 107 92 1
2.841284e+00 3.708830e-01 -7.186565e+00 218 223 131
1.068956e+00 2.161828e-01 -4.356301e+00 69 69 5
2.998698e-01 -4.076624e-02 -3.897821e+00 129 139 16
1.155693e-01 -3.924424e-01 -3.680800e+00 116 117 3
1.157628e-01 -6.201108e-01 -3.611245e+00 154 103 22
1.110167e+00 -8.409660e-01 -4.291710e+00 109 73 2
6.296016e-01 -8.956155e-01 -4.041867e+00 161 146 68
-5.207684e-01 -1.025005e+00 -4.449601e+00 179 148 58
1.289204e+00 -1.168336e+00 -4.420870e+00 187 192 108
1.626492e+00 -1.202289e+00 -4.329101e+00 189 199 110
-8.748080e-01 -1.349759e+00 -4.211073e+00 217 223 127
-9.190898e-03 1.390272e+00 -4.372554e+00 160 165 37
3.628510e-01 9.544752e-01 -3.593332e+00 219 228 94
-2.680018e-01 9.806418e-01 -4.260242e+00 230 241 110
-2.715684e-01 4.630403e-01 -4.487359e+00 71 84 0
7.942466e-01 -2.477925e-01 -3.922855e+00 103 117 0
-7.895134e-01 -3.485059e-01 -4.267146e+00 178 132 31
1.707745e+00 -7.317750e-01 -5.046962e+00 175 183 97
-8.523870e-01 -6.330884e-01 -4.485423e+00 227 230 130
1.986259e+00 -1.290630e+00 -4.324016e+00 204 213 120
7.262368e-01 3.622215e-01 -4.128451e+00 146 148 38
-7.057556e-01 2.188552e-01 -4.570938e+00 215 228 123
-2.247447e+00 1.630722e-02 -6.127826e+00 226 234 135
5.623850e-01 6.840296e-02 -3.977360e+00 45 47 1
-6.106609e-01 -7.379028e-02 -4.238027e+00 135 152 19
-4.045357e-01 -3.394190e-01 -3.986081e+00 212 183 83
2.010728e+00 -5.871379e-01 -5.528311e+00 205 214 121
1.263333e+00 -7.361573e-01 -4.189642e+00 175 177 93
1.659676e+00 -9.701370e-01 -4.792993e+00 178 186 100
1.089771e+00 4.449626e-01 -4.789949e+00 212 228 129
1.089771e+00 4.449626e-01 -4.789949e+00 212 228 129
-3.690866e+00 5.037422e-01 -7.124876e+00 231 232 139
-4.314485e-03 3.354697e-01 -3.842057e+00 195 205 70
-3.243597e+00 8.104509e-02 -6.147611e+00 232 238 142
4.020085e-01 8.767394e-01 -3.872562e+00 170 179 50
5.925144e-01 1.168259e+00 -4.152286e+00 91 88 7
3.130480e-01 4.578025e-01 -3.513192e+00 104 88 0
1.544570e+00 -1.072144e-01 -4.556576e+00 208 219 123
-2.932022e+00 -3.230319e-01 -5.711175e+00 229 230 136
2.607664e-01 -1.035813e+00 -3.964865e+00 137 99 25
-2.992051e-01 -1.333365e+00 -3.559323e+00 215 218 127
3.272449e+00 5.979093e+00 -1.840162e+01 180 159 46
-1.515704e+00 4.775389e+00 -1.491101e+01 194 173 64
-1.755487e+00 5.157778e+00 -1.628253e+01 194 173 64
-8.797028e-01 4.597387e+00 -1.489109e+01 239 231 124
4.206530e-01 1.269510e+00 -4.487957e+00 113 115 5
8.442350e-02 3.206163e-01 -3.941276e+00 181 186 57
2.757100e-01 1.831374e-01 -3.977547e+00 127 114 2
9.573873e-01 3.162883e-02 -4.128234e+00 114 114 16
-5.522076e-01 1.482534e-01 -4.374442e+00 143 152 22
7.795756e-02 2.335969e-02 -3.868675e+00 145 129 7
1.004867e+00 -6.161224e-01 -3.943041e+00 166 125 43
9.112755e-01 6.679346e+00 -1.662610e+01 161 151 56
-1.094455e-01 1.446534e+00 -4.331872e+00 200 210 91
-8.895252e-02 1.418246e+00 -4.321980e+00 201 211 86
6.179433e-01 1.325011e+00 -4.522244e+00 106 102 11
-1.277002e-02 1.140185e+00 -4.266454e+00 229 240 102
3.195533e-02 6.904488e-01 -3.337508e+00 208 218 81
7.152488e-02 4.171961e-01 -3.951811e+00 185 192 64
-3.469562e-02 4.188778e-01 -4.157673e+00 195 205 80
-2.137993e-01 2.861231e-01 -4.425525e+00 119 127 8
4.149377e-01 -8.001598e-02 -3.806425e+00 109 111 8
1.243250e-01 -7.516937e-02 -3.741930e+00 128 128 5
4.437876e-01 -1.432256e-01 -3.802512e+00 162 157 65
4.437876e-01 -1.432256e-01 -3.802512e+00 162 157 65
-6.401088e-01 2.573591e-02 -4.280133e+00 140 156 19
-6.483377e-01 -2.767392e-02 -4.224869e+00 140 157 21
-8.322051e-02 -1.957535e-01 -3.604895e+00 145 147 4
-2.006482e-01 -2.577681e-01 -3.908245e+00 121 140 20
1.064988e+00 -7.793217e-01 -4.241124e+00 152 115 34
1.089471e+00 -9.232531e-01 -4.280550e+00 163 131 55
-2.271831e-01 -7.202946e-01 -3.976525e+00 164 126 43
-1.621268e-01 -7.738057e-01 -3.968285e+00 187 155 70
8.154976e-01 -1.106465e+00 -4.158831e+00 162 136 55
8.060747e-01 -1.153130e+00 -4.279199e+00 161 135 54
1.155562e+00 -1.238269e+00 -4.219233e+00 184 188 101
8.274555e-01 -1.206048e+00 -4.222866e+00 162 145 61
-7.914245e-01 -9.963895e-01 -4.663987e+00 211 190 98
9.514130e-01 -1.325348e+00 -3.949980e+00 200 198 111
-1.304684e-01 1.479389e+00 -4.388415e+00 218 226 114
5.299514e-01 1.262264e+00 -4.496368e+00 98 99 3
-1.921877e-01 1.286180e+00 -4.454289e+00 208 218 95
9.899203e-01 1.115037e+00 -4.620235e+00 215 224 115
-1.717187e-01 1.143204e+00 -4.249188e+00 230 242 104
8.076270e-02 9.383544e-01 -3.581764e+00 212 224 82
-4.059628e-01 8.949577e-01 -4.350933e+00 224 235 105
-4.261538e-01 8.671018e-01 -4.432937e+00 209 219 95
8.431536e-02 6.048880e-01 -3.409418e+00 159 164 46
-1.129755e-01 4.931659e-01 -4.235234e+00 179 194 65
9.989920e-01 2.727220e-01 -4.290952e+00 177 187 76
-1.527692e-01 4.203778e-01 -4.396182e+00 150 169 44
-5.214955e-01 4.176272e-01 -4.572707e+00 154 173 38
-3.357464e-02 2.910200e-01 -4.096742e+00 199 211 79
1.692082e-01 1.782582e-01 -3.911792e+00 147 143 10
1.216212e-01 1.740307e-01 -3.919640e+00 167 162 20
-2.849341e-01 2.366600e-01 -4.420891e+00 124 125 19
8.193346e-01 -8.576220e-02 -3.957003e+00 116 139 9
-6.740288e-01 -9.855790e-03 -4.360766e+00 153 158 30
-4.556349e-01 -9.611024e-02 -4.073780e+00 145 177 21
-7.009017e-01 -4.017533e-01 -4.201465e+00 204 149 49
-6.164089e-01 -5.542948e-01 -4.192225e+00 182 131 42
-7.215595e-01 -6.211098e-01 -4.477760e+00 180 135 50
-2.628844e-01 -6.810108e-01 -3.998777e+00 176 134 48
-1.752624e-01 -7.332521e-01 -3.944412e+00 160 123 40
8.461437e-01 -1.007871e+00 -4.214098e+00 184 162 77
3.934427e-01 -8.958945e-01 -4.002433e+00 144 102 26
5.976825e-01 -9.888834e-01 -4.083991e+00 177 162 79
9.459665e-01 -1.114508e+00 -4.299291e+00 163 133 53
-4.800855e-01 -8.331899e-01 -4.336046e+00 202 175 90
4.450356e-01 -1.265847e+00 -4.105064e+00 178 153 69
-3.232649e-01 -1.192711e+00 -4.281812e+00 200 184 96
4.574462e-01 -1.305560e+00 -3.960387e+00 192 182 93
-3.659998e-01 -1.207505e+00 -4.245032e+00 205 194 104
5.317378e+00 7.006644e+00 -2.076915e+01 181 166 57
6.993832e+00 5.617232e+00 -1.781819e+01 190 173 65
-2.085068e+00 1.342071e+00 -2.546964e+00 201 186 65
7.361512e-01 1.608256e+00 -4.723014e+00 209 215 115
-1.987900e-01 1.044318e+00 -4.261364e+00 231 243 106
3.789361e-01 8.155983e-01 -3.484577e+00 182 193 56
-1.043616e-01 8.367685e-01 -4.152293e+00 222 233 90
-1.063758e-01 8.360954e-01 -4.162693e+00 222 233 90
-8.746495e-03 7.295422e-01 -3.516090e+00 218 226 88
-4.368862e-01 7.216880e-01 -4.411281e+00 188 199 71
1.842949e-01 5.128991e-01 -3.527244e+00 102 92 3
2.896450e-02 5.162837e-01 -4.027386e+00 183 189 60
5.956474e-01 2.869867e-01 -3.829029e+00 98 87 0
-8.908519e-02 3.962308e-01 -4.240239e+00 154 168 45
-9.175373e-02 3.943850e-01 -4.235624e+00 154 168 45
3.736488e-02 3.355321e-01 -4.008630e+00 181 188 56
3.247246e-01 2.439253e-01 -3.791393e+00 104 73 8
1.121798e+00 1.599062e-01 -4.338236e+00 212 220 131
-1.717552e-01 2.903768e-01 -4.347720e+00 120 136 12
7.345778e-01 8.783056e-02 -4.101969e+00 117 127 21
-4.827777e-01 2.188106e-01 -4.435128e+00 96 96 0
3.274957e+00 -6.131968e-01 -5.395595e+00 211 214 123
-1.341548e-01 -2.235445e-01 -3.688386e+00 117 127 2
-1.373714e-01 -2.707617e-01 -3.804201e+00 129 147 23
-7.513374e-01 -3.909441e-01 -4.221925e+00 206 151 58
1.011549e+00 -9.103294e-01 -4.247657e+00 154 117 39
1.843513e+00 -1.141598e+00 -4.319567e+00 210 213 122
1.142483e+00 -1.019791e+00 -4.349957e+00 152 130 54
-7.425733e-01 -6.741858e-01 -4.511929e+00 135 98 9
-4.690077e-01 -6.958731e-01 -4.233180e+00 176 135 49
7.836405e-01 -9.659875e-01 -4.170895e+00 113 93 7
7.836405e-01 -9.659875e-01 -4.170895e+00 113 93 7
-3.218520e-01 -7.479789e-01 -4.076867e+00 178 131 49
-1.004422e-01 -7.860490e-01 -3.895569e+00 153 117 32
-1.665909e-01 -8.262439e-01 -3.998012e+00 131 104 17
1.622442e-01 -9.925408e-01 -4.006709e+00 160 115 37
7.858222e-01 -1.178502e+00 -4.226702e+00 135 113 30
-5.187428e-02 -9.755298e-01 -3.981629e+00 177 132 51
1.176926e+00 -1.271634e+00 -4.164750e+00 189 192 103
-6.631957e-01 -9.553684e-01 -4.533204e+00 201 157 72
4.097019e-01 -1.108813e+00 -4.069773e+00 161 115 38
-4.738956e-01 -1.028729e+00 -4.413747e+00 196 159 70
-3.933804e-01 -1.081161e+00 -4.389677e+00 199 164 76
4.285060e-01 -1.217916e+00 -4.080223e+00 149 117 35
-4.910455e-01 -1.091245e+00 -4.198172e+00 206 191 100
-1.353550e-02 -1.166965e+00 -4.043432e+00 199 142 61
-9.022643e-02 -1.182471e+00 -4.105165e+00 202 154 72
1.400965e+00 6.547576e+00 -1.919789e+01 197 182 66
-2.740986e-03 1.439500e+00 -4.341858e+00 160 168 56
-2.740986e-03 1.439500e+00 -4.341858e+00 160 168 56
3.524036e-01 1.347505e+00 -4.593003e+00 218 225 111
4.847242e+00 1.303347e+00 -8.939392e+00 205 211 115
-1.771391e-01 9.752350e-01 -4.165688e+00 213 225 87
-8.698385e-02 7.175475e-01 -4.017238e+00 229 238 100
-9.982370e-02 4.535810e-01 -4.167706e+00 201 213 85
8.713213e-01 -4.276481e-02 -4.037054e+00 126 144 21
-2.880240e-01 1.386253e-01 -4.293583e+00 109 112 0
-1.166882e-01 6.956091e-02 -3.728740e+00 173 164 3
-2.560035e-01 2.859356e-02 -4.193475e+00 112 142 0
-2.595045e-01 2.826471e-02 -4.177338e+00 112 142 0
8.859939e-01 -1.895454e-01 -3.918489e+00 131 141 17
-5.985655e-01 5.589696e-02 -4.317789e+00 121 129 10
-5.593727e-02 -5.156900e-02 -3.710135e+00 164 147 0
-6.000338e-01 -3.523731e-02 -4.246115e+00 148 166 33
-7.199781e-01 -4.065302e-02 -4.432054e+00 204 183 76
-3.543090e-01 -4.802551e-01 -3.905761e+00 175 124 33
4.879780e-01 -6.938244e-01 -3.990592e+00 177 122 42
1.102657e+00 -8.368692e-01 -4.274110e+00 112 83 0
-2.698312e-01 -5.834309e-01 -3.967740e+00 204 151 57
1.805056e-01 -6.729777e-01 -3.655319e+00 181 131 46
-5.860179e-01 -6.487085e-01 -4.395086e+00 185 135 51
1.013262e+00 -1.151213e+00 -4.321931e+00 134 109 27
-1.346925e-01 -8.691687e-01 -3.954695e+00 215 188 101
3.277841e-02 -8.996554e-01 -3.858308e+00 182 129 49
-4.045284e-01 -9.213017e-01 -4.331367e+00 202 181 90
-7.108770e-01 -9.019882e-01 -4.561899e+00 195 151 63
2.653206e-01 -1.049241e+00 -3.967079e+00 164 117 39
6.707851e-01 -1.209097e+00 -4.226402e+00 137 116 34
-7.055327e-01 -9.863734e-01 -4.548454e+00 166 132 43
5.563598e-01 -1.226018e+00 -4.186224e+00 140 114 33
8.638717e-01 -1.340790e+00 -3.862748e+00 204 200 111
-6.703165e-01 -1.177743e+00 -4.357376e+00 208 207 114
2.161695e-01 8.717117e-01 -3.439477e+00 193 206 66
1.852403e-01 6.585298e-01 -3.368828e+00 176 183 58
2.610322e-01 5.368184e-01 -3.534745e+00 50 34 0
3.968053e+00 2.950447e-01 -6.952438e+00 211 215 121
5.137128e-01 3.453268e-01 -3.603242e+00 181 170 72
-3.836529e-01 1.113902e-01 -4.292067e+00 159 179 38
-1.719084e-01 3.446495e-02 -3.855317e+00 220 227 95
4.056928e+00 -7.250035e-01 -5.263176e+00 210 213 122
2.702329e-01 -1.986763e-01 -3.772141e+00 119 142 9
1.741843e-01 -6.161944e-01 -3.649169e+00 154 102 18
7.538507e-01 -8.238964e-01 -4.119488e+00 116 80 0
-5.090686e-01 -6.086112e-01 -4.234551e+00 181 131 45
9.829814e-01 -9.599583e-01 -4.264194e+00 113 82 3
1.115617e-01 -8.472623e-01 -3.849515e+00 164 116 34
-4.179074e-01 -8.787650e-01 -4.274751e+00 199 174 84
8.485335e-01 -1.315214e+00 -4.204062e+00 182 178 89
1.541835e+00 -1.425227e+00 -3.752372e+00 216 220 126
6.736850e-01 -1.348812e+00 -4.062582e+00 189 183 97
-2.373133e+00 -9.019467e-01 -4.841143e+00 229 229 139
-2.352995e-01 1.161267e+00 -4.367738e+00 230 245 118
-7.670377e-02 9.164666e-01 -4.174741e+00 202 211 69
-4.548796e-04 6.488695e-01 -3.419881e+00 210 220 89
-1.642356e-01 6.932031e-01 -4.181679e+00 164 175 38
-1.491751e-01 4.862786e-01 -4.333866e+00 194 211 79
1.071535e+00 2.263560e-01 -4.330043e+00 74 73 6
-5.552727e-01 3.568405e-01 -4.718123e+00 129 153 15
4.703080e+00 -4.578420e-01 -5.727702e+00 208 213 119
-1.359685e-01 1.711816e-01 -4.304045e+00 87 98 0
6.292761e-01 -4.917926e-02 -3.957543e+00 140 161 34
-5.515403e-01 -9.108703e-01 -4.411353e+00 217 207 112
2.280517e-01 2.852387e-01 -3.828121e+00 104 82 0
-2.842807e+00 8.445825e-01 -8.172378e+00 228 233 141
9.968194e-01 1.723070e-02 -4.179321e+00 109 106 11
1.288577e-01 -1.325356e-01 -3.733435e+00 88 97 1
-2.090002e-01 -9.798687e-02 -3.816848e+00 78 79 0
3.399642e+00 -8.014246e-01 -5.262789e+00 214 217 126
1.371680e+00 -4.300913e-01 -4.232651e+00 208 209 119
2.814427e+00 -1.057728e+00 -4.720141e+00 211 214 123
1.345525e+00 -8.161326e-01 -4.146433e+00 185 189 102
-2.393426e-01 -9.756431e-01 -4.183103e+00 124 98 13
-2.906295e+00 -7.043736e-01 -5.313274e+00 228 233 139
-2.993774e+00 -8.189730e-01 -5.228396e+00 237 243 147
-2.993774e+00 -8.189730e-01 -5.228396e+00 237 243 147
-1.951829e+00 -9.834673e-01 -4.892971e+00 228 233 141
8.748729e-01 -1.383694e+00 -3.742459e+00 217 218 125
-2.035960e+00 -1.024247e+00 -4.565691e+00 220 223 132
5.167143e-02 5.517326e-01 -3.696785e+00 114 107 0
-5.480009e-01 7.157413e-01 -4.564734e+00 215 229 117
-1.923927e+00 -1.042179e-02 -6.098558e+00 230 234 140
1.119493e+00 -5.007789e-01 -3.991437e+00 148 106 24
-8.222591e-01 -3.221770e-01 -4.098775e+00 171 125 27
-2.047463e-01 -4.219935e-01 -3.825613e+00 201 173 74
1.269252e+00 -7.716588e-01 -4.330313e+00 186 184 99
-2.120052e+00 -4.873254e-01 -5.605877e+00 228 231 140
1.591349e+00 -1.266985e+00 -4.314496e+00 194 198 111
1.307394e+00 -1.437349e+00 -3.797967e+00 216 217 124
8.915520e-01 -1.731166e-01 -3.854482e+00 125 136 16
4.571232e-01 9.497156e-01 -4.365206e+00 231 242 104
-5.266674e-02 3.053345e-01 -3.888605e+00 195 202 72
-1.521938e+00 -4.287873e-01 -5.927559e+00 220 225 131
4.414560e-01 4.010241e-01 -3.945680e+00 90 64 0
-1.698316e-02 1.323690e+00 -5.302929e+00 229 245 110
1.652435e+00 7.292644e-01 -3.992875e+00 206 216 119
1.652435e+00 7.292644e-01 -3.992875e+00 206 216 119
1.477243e+00 5.935474e+00 -1.857720e+01 182 164 49
2.279609e+00 5.208902e+00 -1.647439e+01 185 169 56
-2.343985e-01 2.296510e-01 -4.350730e+00 106 98 0
-4.470593e-01 -4.327213e-01 -3.988574e+00 198 152 56
5.928452e-01 5.585978e+00 -1.698233e+01 183 166 50
-1.439296e-01 7.615944e-01 -4.163114e+00 204 212 75
-4.212847e-02 4.179646e-01 -4.141427e+00 189 204 79
-3.793295e-01 2.863740e-01 -4.415798e+00 94 90 5
-5.737941e-01 -2.663100e-02 -4.199629e+00 136 148 14
4.117149e-01 -7.922015e-01 -3.956215e+00 160 117 33
-5.494600e-01 -7.102451e-01 -4.338365e+00 174 137 46
1.062779e+00 -1.186190e+00 -4.339204e+00 159 143 62
-4.218549e-02 -1.204549e+00 -4.116077e+00 193 143 54
4.421627e+00 5.438190e+00 -1.708048e+01 195 181 74
4.421627e+00 5.438190e+00 -1.708048e+01 195 181 74
3.603045e+00 4.717519e+00 -1.558597e+01 182 168 61
7.085284e-01 1.440830e+00 -4.499916e+00 219 225 129
9.304386e-01 2.689517e-01 -4.273456e+00 143 158 40
8.119803e-01 -3.026443e-01 -3.859060e+00 154 128 28
3.650686e-01 -1.035218e+00 -3.989509e+00 157 115 35
6.589709e-01 -1.314666e+00 -3.886184e+00 192 192 102
9.619322e-01 1.308018e+00 -4.652795e+00 217 223 123
1.407595e-02 -1.322941e+00 -4.018213e+00 206 186 96
1.761265e+00 -1.165504e+00 -4.411526e+00 206 215 124
3.061835e-01 -8.808493e-01 -3.966357e+00 156 115 33
2.341655e+00 6.177319e+00 -1.857551e+01 143 124 20
2.341655e+00 6.177319e+00 -1.857551e+01 143 124 20
-1.983849e+00 5.500947e+00 -1.673156e+01 198 180 70
2.176429e-01 8.709604e-01 -3.440695e+00 197 207 74
-2.710902e+00 9.956291e-01 -8.316443e+00 221 226 134
-6.739581e-01 -1.165259e+00 -4.351563e+00 205 205 109
-2.904800e+00 -1.138182e+00 -4.408800e+00 233 243 147
2.232600e+00 5.448462e+00 -1.704731e+01 202 185 70
-3.858193e-01 1.074368e+00 -4.543579e+00 214 224 119
1.649199e+00 -1.211779e+00 -4.384054e+00 187 195 109
2.216583e+00 -1.401857e+00 -3.451737e+00 213 216 127
5.523088e-01 -1.227251e+00 -3.989151e+00 177 165 79
4.886759e+00 1.848194e+00 -9.982379e+00 209 215 119
-5.023640e-02 6.349822e-01 -3.654089e+00 149 155 25
-2.882508e-02 -2.743796e-01 -3.661634e+00 99 118 0
3.424875e-01 7.982344e-01 -3.487022e+00 177 188 57
-1.805114e-01 7.493264e-01 -4.159171e+00 185 196 58
2.567103e-01 7.198024e-01 -3.354245e+00 176 187 60
8.134216e-01 3.160208e-01 -4.256417e+00 148 160 52
5.261504e-02 4.810712e-02 -3.736987e+00 139 121 11
8.277734e-02 -2.694704e-02 -3.682131e+00 146 128 0
1.215671e+00 -4.486407e-01 -3.974157e+00 175 158 80
2.127476e-01 -5.965520e-01 -3.682568e+00 163 110 34
-2.750931e-01 -1.025872e+00 -4.191811e+00 154 122 35
2.547455e+00 5.616031e+00 -1.768787e+01 200 184 66
7.024116e-01 1.179354e+00 -4.523626e+00 77 75 6
8.917276e-01 1.110265e+00 -4.578567e+00 133 137 14
9.567729e-01 1.102571e+00 -4.580610e+00 211 219 118
9.567729e-01 1.102571e+00 -4.580610e+00 211 219 118
3.532980e-01 6.850182e-01 -3.455663e+00 153 161 43
-1.666349e-01 2.762463e-01 -4.326183e+00 126 137 17
-2.375934e-01 2.008909e-01 -4.316343e+00 188 176 75
7.017597e-01 2.591068e-01 -3.970140e+00 118 105 7
9.243855e-01 2.192079e-01 -4.335684e+00 109 121 20
6.783334e-01 2.150290e-01 -3.977917e+00 120 105 12
1.020426e+00 5.690247e-02 -4.182200e+00 119 119 26
-7.043062e-01 -4.815962e-02 -4.279824e+00 187 181 65
-3.158025e-01 -1.744660e-02 -4.107740e+00 143 173 14
-9.288071e-02 -6.371253e-01 -3.745887e+00 187 137 50
-3.210125e-01 -8.463890e-01 -4.156076e+00 185 154 63
1.766702e-01 -1.181286e+00 -4.072821e+00 163 107 32
-5.857064e+00 3.552373e+00 -1.326897e+01 232 237 145
1.897853e-01 1.162848e+00 -4.238880e+00 199 209 86
6.359436e-01 1.141883e+00 -4.463166e+00 104 106 7
2.147803e-01 1.108486e+00 -4.284886e+00 179 188 61
3.139599e-01 9.389140e-01 -3.461928e+00 216 226 95
8.450007e-01 9.495087e-01 -4.534629e+00 106 109 9
2.785436e-01 7.418699e-01 -3.387292e+00 178 189 61
6.966285e-01 6.647675e-01 -4.122358e+00 141 116 23
2.476965e-01 6.420498e-01 -3.402729e+00 139 141 29
6.196667e-01 5.985345e-01 -3.866783e+00 142 100 22
9.847579e-01 5.717129e-01 -4.490342e+00 100 107 5
-2.149900e-01 2.826111e-01 -4.375808e+00 109 116 1
-3.560027e-02 2.934411e-01 -4.044199e+00 202 214 78
9.240938e-02 2.271167e-01 -3.854185e+00 164 161 26
1.266015e-01 1.731931e-01 -3.960745e+00 172 169 37
6.340992e-01 1.359379e-01 -4.014081e+00 108 100 18
-4.141889e-01 -1.045357e-01 -4.057346e+00 129 161 9
9.862323e-01 -6.460254e-02 -4.039993e+00 106 113 8
-8.287648e-01 -2.209303e-01 -4.280707e+00 199 185 80
1.035151e-01 -1.042343e+00 -4.004202e+00 162 109 29
7.194801e-01 -1.068035e+00 -4.169817e+00 141 114 40
1.161301e+00 -1.140718e+00 -4.242382e+00 166 167 87
1.665713e+00 -1.230799e+00 -4.264778e+00 196 209 121
1.896458e-02 -1.246668e+00 -3.970766e+00 183 146 57
4.412222e-01 8.636642e-01 -3.584670e+00 166 178 50
8.397296e-01 8.623042e-01 -4.581052e+00 92 92 2
-1.300166e-01 5.975704e-01 -4.173436e+00 198 209 81
7.792120e-01 4.466463e-01 -4.290349e+00 190 177 75
5.638921e-01 4.100139e-01 -3.834721e+00 117 85 12
7.014085e-01 3.523746e-01 -4.103115e+00 148 140 39
1.008562e+00 2.927323e-01 -4.308359e+00 185 196 100
6.687955e-01 2.378668e-01 -4.043861e+00 161 146 51
1.807889e-01 1.662404e-01 -4.033472e+00 139 129 9
1.061911e-01 9.600559e-02 -3.845579e+00 141 136 10
-7.241608e-01 -1.637527e-01 -4.249819e+00 199 169 66
1.016433e+00 -1.116005e-01 -4.082393e+00 124 132 28
1.047407e+00 -1.452664e-01 -4.259505e+00 124 132 28
9.262477e-01 -2.884527e-01 -3.939023e+00 149 125 36
-8.504079e-01 -8.489219e-01 -4.536427e+00 208 208 110
-3.831202e-01 -1.209800e+00 -4.398329e+00 201 189 95
9.809784e-01 -1.162892e+00 -4.232387e+00 155 141 66
1.294374e+00 -1.213035e+00 -4.101306e+00 186 196 109
-3.320696e+00 2.851974e+00 -1.176523e+01 216 226 127
6.053190e-01 1.279031e+00 -4.531419e+00 61 60 0
6.553040e-03 1.222921e+00 -4.277990e+00 199 212 71
7.289506e-01 1.115473e+00 -4.538074e+00 63 60 0
8.571094e-01 7.971305e-01 -4.331120e+00 118 120 10
-4.416265e-01 7.315301e-01 -4.437533e+00 200 210 88
4.405649e-01 7.051895e-01 -3.458304e+00 140 146 35
6.718793e-01 4.730952e-01 -4.025332e+00 128 95 10
6.212502e-01 4.271214e-01 -3.854148e+00 157 139 50
5.678540e-01 3.482581e-01 -3.825299e+00 144 127 43
5.678540e-01 3.482581e-01 -3.825299e+00 144 127 43
1.243220e+00 2.584518e-01 -4.942626e+00 206 214 127
5.906610e-01 2.861301e-01 -3.838707e+00 92 75 0
5.378268e-01 2.293614e-01 -3.848179e+00 123 106 18
1.183878e+00 1.506844e-01 -4.543161e+00 152 133 49
-1.109031e-01 1.395906e-01 -4.081386e+00 217 219 72
-1.849660e-01 2.431621e-02 -3.841500e+00 220 228 83
9.588332e-02 3.935584e-02 -3.838169e+00 84 68 0
-1.375418e-01 -9.476735e-02 -3.723379e+00 183 174 31
-1.738225e-01 -1.577641e-01 -3.764810e+00 97 105 0
-4.976473e-01 -4.326430e-01 -4.026009e+00 181 134 38
-1.348433e-01 -8.652227e-01 -3.945786e+00 209 182 95
1.311645e+00 -1.057071e+00 -4.338687e+00 182 186 104
-1.529588e+00 -1.201101e+00 -3.961283e+00 225 235 138
-1.452419e+00 -1.245576e+00 -3.820085e+00 226 232 134
8.202266e-01 -1.259414e+00 -4.011266e+00 174 174 88
-4.299853e+00 3.591471e+00 -1.350377e+01 220 226 130
6.670676e-01 1.409447e+00 -4.562358e+00 114 117 19
5.712224e-02 1.160041e+00 -4.214463e+00 233 245 111
-3.538872e+00 1.257092e+00 -8.696776e+00 227 233 135
1.385279e-01 1.128732e+00 -4.173047e+00 195 205 73
6.493264e-01 1.066134e+00 -4.431435e+00 124 127 13
-1.805093e-01 9.807338e-01 -4.204639e+00 214 226 89
-3.888787e+00 8.765741e-01 -8.152038e+00 232 236 142
6.279616e-01 6.681926e-01 -4.052098e+00 167 143 50
1.027724e+00 4.558485e-01 -4.835417e+00 212 220 119
1.329510e-01 3.478260e-01 -3.633007e+00 110 100 0
4.076368e-01 1.769344e-01 -3.879969e+00 58 42 0
2.333042e-01 1.564721e-01 -3.933291e+00 153 145 38
2.333042e-01 1.564721e-01 -3.933291e+00 153 145 38
-6.387600e-01 -9.082786e-02 -4.218564e+00 119 124 1
1.146708e+00 -9.278384e-02 -4.374795e+00 146 126 39
-1.896964e+00 -4.878486e-01 -5.505261e+00 219 225 127
9.153831e-01 -4.563865e-01 -3.745955e+00 139 91 17
2.000383e+00 -8.265607e-01 -5.106069e+00 196 205 114
1.814031e+00 -8.338308e-01 -4.905305e+00 196 206 119
-2.994235e+00 -1.205782e+00 -4.568273e+00 236 241 149
-2.190369e+00 -1.186715e+00 -4.451103e+00 222 228 132
1.443889e+00 -1.083678e+00 -4.582339e+00 183 191 108
7.630641e-01 -1.031443e+00 -4.164289e+00 179 152 80
-4.920880e-02 -1.257079e+00 -4.150373e+00 187 142 55
1.638409e+00 -1.315152e+00 -4.322203e+00 191 204 116
1.546374e-01 -1.362145e+00 -4.031638e+00 198 183 96
-3.595678e+00 3.341366e+00 -1.245122e+01 219 226 130
-8.069245e-02 9.146252e-01 -4.149342e+00 200 211 70
2.161190e-01 8.716264e-01 -3.454702e+00 184 195 65
-1.631503e-01 6.940278e-01 -4.115005e+00 164 174 43
-3.340914e-01 -1.197863e-01 -3.943403e+00 151 173 26
-2.883752e+00 -8.561398e-01 -4.801206e+00 228 231 140
-3.273300e+00 -1.053381e+00 -4.500090e+00 221 231 135
-2.968498e+00 -1.474797e+00 -4.078664e+00 229 235 139
-2.108622e-01 -8.889844e-02 -3.810334e+00 77 84 0
1.733159e-01 -1.420128e-01 -3.868464e+00 73 82 0
-2.782189e+00 -6.552256e-01 -4.945563e+00 224 228 134
1.128982e+00 -3.106999e-01 -3.888317e+00 167 123 50
-9.300254e-03 1.390119e+00 -4.387834e+00 148 157 32
2.740010e-01 1.295516e+00 -4.352630e+00 213 224 122
-5.697768e-01 6.642558e-02 -4.313110e+00 177 171 58
-4.083620e-01 -6.609369e-03 -4.007526e+00 168 197 41
-4.206500e-01 -2.487809e-02 -4.118971e+00 168 197 41
9.452813e-01 2.158213e-02 -4.101781e+00 123 122 33
9.452813e-01 2.158213e-02 -4.101781e+00 123 122 33
2.915971e-01 -2.902757e-02 -3.889366e+00 130 141 11
-2.099376e+00 -4.794681e-01 -5.549364e+00 224 230 132
3.835904e-03 -2.658417e-01 -3.786900e+00 95 102 0
1.741994e+00 -7.491268e-01 -5.241370e+00 171 183 98
1.118809e+00 -5.050061e-01 -3.982411e+00 139 100 23
-2.723229e+00 -1.221855e+00 -4.071347e+00 227 232 138
-2.932968e+00 -3.252062e-01 -5.728908e+00 226 230 135
-4.026213e+00 -1.066991e+00 -6.700824e+00 232 236 142
2.651325e-01 8.606542e-01 -3.455949e+00 201 211 80
9.219855e-01 7.716003e-01 -4.571643e+00 103 102 0
4.489472e-01 4.085278e-01 -3.787674e+00 86 58 7
8.580986e-01 2.723871e-01 -4.245913e+00 134 142 41
2.775682e+00 1.355153e+00 -3.541515e+00 206 206 111
8.984727e-01 1.101379e+00 -4.589732e+00 131 139 18
8.873115e-01 4.343974e-01 -4.465236e+00 139 140 40
9.665116e-01 2.922362e-01 -4.288158e+00 162 173 75
2.076716e-01 -6.030186e-02 -3.854856e+00 121 125 0
-2.674372e-02 -2.244792e-01 -3.726362e+00 118 127 4
-3.356976e-01 6.882135e-01 -4.319039e+00 192 203 77
4.749184e-01 2.415039e-01 -3.768054e+00 90 73 0
1.638018e-01 -2.844288e-01 -3.731687e+00 106 131 4
-1.832696e-01 -7.245375e-01 -3.899602e+00 166 128 45
-8.765817e-02 -8.247292e-01 -3.930645e+00 157 115 34
-1.462272e-01 1.417750e+00 -4.336338e+00 193 205 89
-6.271465e-01 -1.495063e-01 -4.205665e+00 186 168 66
-5.272501e-01 -1.064752e+00 -4.453628e+00 169 142 58
1.152886e+00 -7.278236e-01 -4.287372e+00 147 116 46
1.183030e+00 -1.209339e+00 -4.338023e+00 179 175 96
-3.451854e+00 8.549364e-01 -7.696515e+00 233 233 145
-3.774225e+00 8.542798e-01 -7.861673e+00 232 237 147
2.018569e+00 -5.744095e-01 -5.149820e+00 212 219 139
-3.023156e+00 -4.954255e-01 -5.448915e+00 227 230 143
-2.971852e+00 -9.905980e-01 -4.632487e+00 235 239 152
1.545105e+00 -1.388479e+00 -3.299006e+00 215 217 133
-3.489883e+00 8.651490e-01 -7.806046e+00 233 233 145
8.308801e-02 2.791674e-01 -3.752058e+00 193 193 68
-3.498493e+00 5.445265e-01 -7.411473e+00 231 232 144
-3.529338e+00 5.477018e-01 -7.524298e+00 231 232 144
-2.031875e+00 -1.037548e+00 -5.235758e+00 226 235 142
2.812830e+00 -5.330867e-01 -5.282160e+00 216 219 140
3.591231e-01 -4.575946e-01 -3.665329e+00 178 134 59
5.662553e-01 1.563040e+00 -4.515543e+00 206 219 127
8.371462e-01 1.524693e+00 -4.572046e+00 203 218 125
1.413443e+00 9.913979e-01 -2.284986e+00 212 222 118
1.236781e-01 -1.024920e+00 -3.898023e+00 154 107 29
-4.147841e-02 -1.675407e-01 -3.626007e+00 136 132 4
2.594809e-01 -2.905412e-01 -3.727735e+00 103 124 3
3.320026e+00 1.352862e+00 -8.891808e+00 215 218 129
3.712771e+00 8.201110e+00 -2.288260e+01 182 171 65
-1.010831e+00 1.434170e+00 -3.260367e+00 185 180 66
2.936120e+00 2.445409e+00 -7.235442e+00 179 166 62
-3.764991e-01 2.482162e-01 -4.432297e+00 87 81 14
4.006424e-01 1.551346e+00 -4.654727e+00 213 223 124
2.343626e+00 -6.088146e-01 -5.285098e+00 210 219 126
-1.658302e-01 7.510746e+00 -2.433414e+01 198 181 62
4.597674e+00 7.370867e+00 -2.122511e+01 164 156 47
5.095022e+00 4.781024e+00 -1.480748e+01 191 174 66
-1.594582e+00 1.475347e+00 -9.130610e+00 213 228 127
9.737281e-01 -1.045724e-01 -4.025607e+00 116 131 12
3.124015e-01 8.122631e-01 -3.439890e+00 182 192 61
9.199916e-01 1.261759e+00 -4.656695e+00 105 112 3
-3.027284e+00 1.053794e+00 -8.363173e+00 218 224 126
6.294299e-01 -1.139415e+00 -4.135682e+00 152 118 44
-3.942263e-01 5.123084e+00 -1.540980e+01 182 165 51
-5.902133e-03 3.747903e-01 -4.104308e+00 205 214 87
-6.238643e-01 3.211143e-01 -4.983896e+00 188 184 80
-1.037213e-01 1.691601e-01 -3.850202e+00 203 208 62
-7.097435e-01 -9.678898e-01 -4.621737e+00 197 154 66
-2.660406e-01 -1.065067e+00 -4.243264e+00 170 130 45
7.580717e+00 9.433674e+00 -2.526565e+01 157 142 45
-5.794007e+00 8.798337e+00 -2.658815e+01 208 194 72
-6.623073e-01 4.402536e+00 -1.471394e+01 221 225 125
-1.334306e-01 1.154264e+00 -4.263113e+00 231 243 105
-4.947338e-01 4.582279e-01 -4.577888e+00 205 220 91
-3.756222e-01 2.845605e-01 -4.421128e+00 92 89 7
-1.547847e-01 -7.767463e-01 -3.997083e+00 187 155 70
-2.527168e+00 1.014414e+01 -2.628681e+01 174 161 63
6.833618e-01 1.083210e+00 -2.089434e+00 179 165 66
1.331906e-01 7.031070e-01 -3.319422e+00 202 213 81
1.321199e+00 3.178655e-01 -4.550761e+00 213 224 128
-3.760384e-02 2.894575e-01 -4.082424e+00 199 211 79
6.992703e-01 -1.569946e-01 -3.892253e+00 118 148 14
-7.290229e-02 -7.591646e-01 -3.863487e+00 178 136 52
-3.239040e-01 -8.125438e-01 -4.182019e+00 162 125 40
-1.685367e+00 7.387792e+00 -2.103784e+01 197 181 70
-3.388844e-02 6.380620e-01 -4.177387e+00 183 193 59
-2.926541e-01 5.523308e-01 -4.462640e+00 149 161 32
1.374325e+00 -1.127914e+00 -4.554592e+00 185 189 103
1.208191e+00 -1.219090e+00 -4.379794e+00 173 176 89
1.083125e+00 -1.256871e+00 -4.258820e+00 184 180 95
8.445181e-01 -7.373998e-01 -4.086607e+00 129 87 5
8.445181e-01 -7.373998e-01 -4.086607e+00 129 87 5
1.745460e+00 -1.156684e+00 -4.472359e+00 206 213 120
-5.575618e-01 -1.103319e+00 -4.394074e+00 210 196 107
1.031295e+01 1.049731e+01 -2.776729e+01 179 167 75
1.398753e+00 -1.247556e+00 -3.993233e+00 195 198 109
9.385735e-02 2.934114e-01 -3.872316e+00 190 192 57
-3.972987e-01 1.127210e+00 -4.449857e+00 214 224 116
-6.484999e-01 -6.919985e-01 -4.558361e+00 148 104 17
-1.923314e-01 1.168320e+00 -4.426983e+00 229 245 110
6.319804e-01 1.404592e+00 -4.541854e+00 138 134 29
1.037300e+00 1.281043e+00 -4.753021e+00 216 224 124
-1.278001e-01 1.262374e+00 -4.441950e+00 229 237 102
-8.827642e-02 3.525720e-01 -4.306409e+00 153 172 54
-3.230143e-01 -2.619228e-03 -4.045588e+00 141 171 15
-6.807846e-01 -4.436463e-02 -4.239704e+00 143 154 15
8.768162e-01 1.239537e+00 -4.683373e+00 109 113 4
-4.593027e-02 4.190780e-01 -4.127967e+00 189 204 79
-1.178283e-01 -9.345236e-01 -3.993676e+00 175 142 55
2.584004e-01 1.118978e+00 -4.302516e+00 196 202 64
-4.074201e-01 8.960757e-01 -4.343880e+00 223 232 103
-3.887613e-02 8.027230e-01 -3.778996e+00 218 226 88
1.025119e+00 6.108483e-01 -4.496581e+00 224 226 125
-4.325903e-01 6.417290e-01 -4.516013e+00 191 200 73
-1.717519e-03 3.219498e-01 -4.074039e+00 210 220 90
-6.413172e-01 8.581047e-02 -4.379464e+00 161 167 33
-6.984212e-01 -1.188101e-01 -4.321764e+00 186 169 53
-7.789357e-02 -3.263108e-01 -3.724083e+00 136 143 17
-4.905665e-01 -9.630119e-01 -4.387725e+00 162 139 45
-5.342473e-01 -9.794107e-01 -4.415440e+00 177 147 56
-1.701564e-01 -1.101935e+00 -4.195959e+00 184 143 53
-4.110299e-01 -1.175829e+00 -4.456896e+00 199 186 90
6.136002e-01 1.426798e+00 -4.493728e+00 128 126 28
-8.000773e-02 7.898727e-01 -4.147903e+00 197 206 65
7.995694e-02 6.096245e-01 -3.419068e+00 162 165 49
1.759022e-01 5.509284e-01 -3.484737e+00 102 91 3
3.898262e-02 3.351295e-01 -4.012141e+00 181 187 57
-2.236518e-01 -4.440548e-02 -3.904620e+00 118 131 4
-4.178384e-01 -9.749577e-02 -4.031692e+00 134 163 9
-3.392391e-01 -1.499105e-01 -3.963766e+00 148 178 33
-5.758377e-01 -4.620455e-01 -4.105558e+00 208 157 60
-1.278822e-02 -1.016126e+00 -3.987175e+00 188 135 55
