ply
format ascii 1.0
element face 0
property list uchar int vertex_indices
element vertex 920
property float x
property float y
property float z
property uchar diffuse_red
property uchar diffuse_green
property uchar diffuse_blue
end_header
-3.250298e-01 -8.078792e-01 -4.173208e+00 163 126 37
-6.984358e-01 -8.691794e-01 -4.525443e+00 175 144 52
6.856527e-02 -7.180495e-01 -3.636354e+00 152 112 25
3.958375e-01 -7.745582e-01 -3.893534e+00 145 107 30
-7.685599e-01 -9.323429e-01 -4.640693e+00 183 159 61
8.503871e-01 -8.379200e-01 -4.135192e+00 130 98 21
-2.783937e-01 -8.471357e-01 -4.140444e+00 157 127 40
-3.523449e-01 -8.998261e-01 -4.247723e+00 141 121 26
-4.202657e-01 -9.839044e-01 -4.303386e+00 182 155 66
-4.781745e-01 -1.021006e+00 -4.412998e+00 193 162 72
-3.381019e-01 -1.025910e+00 -4.270750e+00 155 128 39
-2.653859e+00 -1.076977e+00 -4.493370e+00 234 237 146
5.237294e-01 -1.013638e+00 -4.063843e+00 164 150 71
-1.716919e-01 -1.085653e+00 -4.140253e+00 184 144 61
8.497108e-01 -1.135238e+00 -4.291227e+00 153 126 49
7.637657e-01 -1.091929e+00 -4.044030e+00 150 123 47
-8.599987e-02 -1.193534e+00 -4.167825e+00 195 154 72
2.963400e-01 -1.290453e+00 -4.065936e+00 170 145 70
-5.928928e+00 4.122941e+00 -1.394110e+01 222 227 135
6.920334e-01 1.387882e+00 -4.538592e+00 106 110 15
5.226476e-01 1.386319e+00 -4.570074e+00 107 108 6
7.562143e-01 1.376679e+00 -4.611465e+00 211 221 125
7.583111e-01 1.318345e+00 -4.632795e+00 94 98 12
7.900133e-03 1.214844e+00 -4.260292e+00 202 212 79
7.959418e-01 1.125959e+00 -4.531756e+00 104 106 4
2.799869e-01 8.931364e-01 -3.499770e+00 219 229 97
7.854231e-01 1.037441e+00 -4.575574e+00 101 102 8
3.503061e+00 1.657056e+00 -9.505177e+00 210 215 121
9.457553e-01 9.954510e-01 -4.526406e+00 212 220 112
9.448915e-01 9.954330e-01 -4.512450e+00 212 220 112
-3.756959e-01 9.283826e-01 -4.281344e+00 212 227 102
8.443363e-01 9.461615e-01 -4.546040e+00 107 109 10
-4.267672e-01 7.094013e-01 -4.299200e+00 197 210 85
1.826750e-01 5.042261e-01 -3.488205e+00 98 86 2
-5.292710e-01 5.554733e-01 -4.624102e+00 123 138 12
7.666668e-01 4.385995e-01 -4.239343e+00 194 183 76
1.478054e-01 4.088473e-01 -3.542637e+00 121 108 4
5.589530e-01 4.123963e-01 -3.796507e+00 124 87 8
3.450938e-01 3.717992e-01 -3.798011e+00 79 47 0
4.961021e-01 3.445382e-01 -3.741240e+00 83 54 0
9.204146e-01 3.212722e-01 -4.272282e+00 181 198 86
-3.960123e-01 3.271997e-01 -4.428339e+00 93 93 0
5.226924e-01 2.474844e-01 -3.790178e+00 122 105 16
1.805797e-01 1.752158e-01 -3.943943e+00 136 129 0
-1.573472e-01 1.677828e-01 -4.243482e+00 100 88 0
-3.559784e-01 1.495879e-01 -4.329633e+00 145 151 27
1.350458e+00 1.192095e-01 -4.984447e+00 153 137 50
1.439653e+00 9.827680e-02 -5.117701e+00 215 210 119
6.780555e-01 1.072877e-01 -4.069686e+00 80 76 0
1.631748e-01 9.808468e-02 -4.016037e+00 136 129 0
-2.784735e-01 8.098475e-02 -4.233115e+00 168 188 38
9.442066e-01 6.806565e-02 -4.112143e+00 86 85 0
3.815753e-01 6.432196e-02 -3.950398e+00 94 99 11
-3.879775e-01 3.956775e-02 -4.197363e+00 129 163 2
8.963825e-01 3.139088e-03 -4.056073e+00 92 96 0
-6.650156e-01 -1.335056e-02 -4.294546e+00 144 159 30
1.857443e+00 -4.324912e-01 -5.665285e+00 195 208 116
-1.350526e-01 -2.745725e-01 -3.830752e+00 135 147 18
8.289557e-01 -3.158172e-01 -3.933315e+00 147 121 29
1.797924e+00 -6.227784e-01 -5.297822e+00 184 197 109
1.972999e+00 -6.356248e-01 -5.335347e+00 198 205 111
1.851779e+00 -6.562932e-01 -5.267960e+00 196 207 118
-7.698964e-01 -7.000525e-01 -4.496793e+00 216 208 111
-7.766215e-01 -8.302264e-01 -4.553800e+00 204 196 95
1.884226e+00 -9.100185e-01 -4.840744e+00 202 207 115
3.280653e-02 -6.895792e-01 -3.631491e+00 188 140 53
5.107119e-01 -7.539191e-01 -3.897512e+00 135 103 26
4.672659e-01 -8.457214e-01 -3.943886e+00 155 132 52
3.825320e-02 -9.005524e-01 -3.882900e+00 175 132 53
5.773268e-01 -1.037842e+00 -4.104581e+00 83 62 0
-2.715566e+00 -1.154543e+00 -4.589017e+00 229 232 141
2.945897e-01 -1.137023e+00 -4.071163e+00 149 102 30
1.163231e+00 -1.209306e+00 -4.303434e+00 169 168 86
-3.070361e-02 -1.254709e+00 -4.076025e+00 178 139 54
8.401107e-01 -1.329531e+00 -3.824718e+00 198 201 112
6.558310e-02 1.414130e+00 -4.376460e+00 213 221 111
-1.684947e-01 1.100069e+00 -4.269258e+00 220 232 97
3.343776e+00 1.500997e+00 -9.180829e+00 215 223 130
-2.285673e-01 7.816774e-01 -4.303663e+00 206 216 79
4.464005e-01 7.026420e-01 -3.523579e+00 132 143 21
-1.556625e-01 4.917594e-01 -4.363434e+00 189 205 76
-3.641930e-01 3.721619e-01 -4.457850e+00 184 191 62
-6.361128e-01 3.149989e-01 -4.814928e+00 212 230 113
5.885202e-01 2.815692e-01 -3.812706e+00 97 86 0
5.885202e-01 2.815692e-01 -3.812706e+00 97 86 0
3.462847e-01 1.722614e-01 -3.896709e+00 112 94 16
4.827557e-01 1.729236e-01 -3.843691e+00 97 82 1
-2.860981e-01 1.352146e-01 -4.283179e+00 110 115 0
9.855591e-01 1.202963e-01 -4.224434e+00 115 120 18
7.338894e-01 8.614323e-02 -4.100984e+00 110 121 19
1.183381e-01 -6.841418e-02 -3.722800e+00 128 125 3
1.000840e+00 -2.753350e-01 -3.961159e+00 156 128 36
-8.933659e-01 -3.091106e-01 -4.301128e+00 223 222 120
1.988196e+00 -8.065194e-01 -5.083091e+00 196 204 109
3.403940e-01 -5.708314e-01 -3.569646e+00 148 92 17
8.645169e-01 -7.081838e-01 -4.047373e+00 122 83 4
8.593768e-01 -6.951059e-01 -3.999572e+00 122 83 4
-2.732348e-01 -7.201587e-01 -4.026980e+00 151 110 22
-2.271704e-01 -7.828446e-01 -4.000764e+00 201 168 78
8.006720e-01 -8.809278e-01 -4.147263e+00 156 134 58
-1.364040e-01 -8.770920e-01 -3.990164e+00 210 190 99
3.293853e-01 -8.928999e-01 -4.009286e+00 145 107 31
2.534769e-01 -8.790154e-01 -3.905378e+00 149 109 31
9.292205e-02 -9.007788e-01 -3.914739e+00 150 107 28
7.804647e-01 -9.576696e-01 -4.162527e+00 105 89 8
-3.762201e-03 -9.410771e-01 -3.936861e+00 139 96 16
-6.988271e-02 -9.713655e-01 -3.984351e+00 177 137 54
-5.430651e-01 -1.102068e+00 -4.428089e+00 211 199 109
-2.269158e+00 -1.095293e+00 -4.361451e+00 228 228 138
1.636948e+00 -1.124808e+00 -4.473562e+00 192 198 112
9.235637e-01 -1.080509e+00 -4.231751e+00 157 122 46
1.771510e+00 -1.217397e+00 -4.196990e+00 208 219 127
7.644793e-01 -1.227369e+00 -4.192932e+00 162 153 76
1.167423e+00 -1.276101e+00 -4.185331e+00 183 187 102
9.393135e-01 -1.286291e+00 -4.134191e+00 176 175 93
3.310733e-02 -1.341223e+00 -4.067639e+00 203 184 97
-2.416831e-01 -1.301820e+00 -3.903075e+00 209 206 111
9.156253e-01 1.252847e+00 -4.652970e+00 105 112 3
5.856790e-02 1.162074e+00 -4.263448e+00 231 241 108
5.856790e-02 1.162074e+00 -4.263448e+00 231 241 108
-2.734284e+00 1.139696e+00 -8.197899e+00 221 231 132
2.331058e+00 1.134170e+00 -8.710227e+00 208 219 123
3.741550e-01 6.044410e-01 -3.514536e+00 90 86 0
-5.635765e-01 3.810582e-01 -4.572024e+00 148 168 34
1.281343e-01 3.481627e-01 -3.626674e+00 109 94 0
6.554847e-01 2.211118e-01 -4.079287e+00 165 153 53
3.945223e-01 1.927754e-01 -3.768521e+00 64 39 0
8.538467e-01 -4.248081e-02 -4.015482e+00 121 143 17
-7.410406e-01 -1.518011e-01 -4.180367e+00 200 179 76
1.097881e+00 -1.970700e-01 -4.083694e+00 160 128 45
2.068948e+00 -6.851311e-01 -5.241582e+00 197 207 111
-2.342461e+00 -8.128072e-01 -4.922011e+00 237 238 144
-7.208213e-02 -6.746586e-01 -3.685468e+00 188 140 55
1.020711e+00 -8.920488e-01 -4.244261e+00 146 108 33
-6.210420e-01 -1.001193e+00 -4.487242e+00 172 151 58
-8.962569e-01 -1.023599e+00 -4.508767e+00 210 215 115
5.895551e-01 -9.718497e-01 -4.096963e+00 161 152 73
1.746678e+00 -1.156500e+00 -4.391811e+00 207 217 128
1.431605e+00 -1.233881e+00 -4.327073e+00 192 202 113
-8.283009e-01 -1.228093e+00 -4.276088e+00 221 225 131
-2.083357e+00 -1.336747e+00 -3.778070e+00 229 232 141
2.052635e+00 -1.590911e+00 -3.726037e+00 214 217 126
-4.028090e+00 2.497673e+00 -1.077365e+01 219 225 129
3.733205e-01 1.209393e+00 -4.381428e+00 95 94 11
3.733205e-01 1.209393e+00 -4.381428e+00 95 94 11
-9.448195e-02 1.038501e+00 -4.195980e+00 237 247 110
2.106302e-01 8.608445e-01 -3.391865e+00 189 199 68
-8.813179e-02 8.957587e-01 -4.044598e+00 198 209 71
1.070640e+00 7.485341e-01 -4.535410e+00 210 222 124
4.557856e-01 5.958341e-01 -3.580090e+00 149 146 46
-5.085005e-01 6.528728e-01 -4.417593e+00 213 225 113
-7.431575e-02 2.492539e-01 -4.273881e+00 205 216 77
8.001054e-01 2.214377e-01 -4.261367e+00 89 87 3
-3.585437e+00 1.402896e-01 -6.410581e+00 229 235 139
-3.775226e-01 1.104793e-01 -4.238631e+00 156 173 36
9.059808e-01 4.510621e-02 -4.100607e+00 84 88 3
6.295685e-01 -4.901685e-02 -3.967321e+00 134 154 37
8.941739e-01 -1.746836e-01 -3.966370e+00 119 134 11
1.012843e+00 -1.932995e-01 -4.073451e+00 110 114 4
-1.623841e+00 -5.953326e-01 -5.262389e+00 219 225 127
1.918178e+00 -7.515098e-01 -5.301084e+00 194 204 114
1.841660e+00 -8.534270e-01 -4.984399e+00 197 206 113
-2.131253e+00 -8.412036e-01 -4.871163e+00 225 226 132
9.364812e-01 -8.020151e-01 -4.145245e+00 150 114 38
7.799526e-03 -7.214521e-01 -3.638231e+00 177 137 50
9.607354e-01 -9.488177e-01 -4.251713e+00 104 71 1
2.135800e+00 -1.253579e+00 -4.755483e+00 211 220 129
1.468374e+00 -1.290860e+00 -4.222556e+00 188 197 104
1.983641e+00 -1.321314e+00 -3.822550e+00 207 212 118
5.257703e-01 -1.383433e+00 -3.435389e+00 209 212 121
1.827531e+00 -1.413621e+00 -3.357462e+00 221 224 132
8.189211e-01 1.367561e+00 -4.662253e+00 211 221 124
-3.156177e+00 1.365593e+00 -8.030788e+00 222 227 133
4.755979e-01 7.871828e-01 -3.557077e+00 204 215 87
1.020691e+00 8.649894e-01 -4.637475e+00 99 101 1
3.126130e-01 4.491752e-01 -3.584430e+00 107 92 1
2.828227e+00 3.697365e-01 -7.173675e+00 218 223 131
1.062982e+00 2.143929e-01 -4.353772e+00 69 69 5
2.980664e-01 -4.156007e-02 -3.898034e+00 129 139 16
1.147373e-01 -3.912429e-01 -3.681136e+00 116 117 3
1.149378e-01 -6.175204e-01 -3.611859e+00 154 103 22
1.104250e+00 -8.369154e-01 -4.291476e+00 109 73 2
6.262205e-01 -8.914468e-01 -4.042286e+00 161 146 68
-5.174593e-01 -1.020625e+00 -4.449634e+00 179 148 58
1.282128e+00 -1.162040e+00 -4.420188e+00 187 192 108
1.617383e+00 -1.195888e+00 -4.330795e+00 189 199 110
-8.690914e-01 -1.342629e+00 -4.210575e+00 217 223 127
-9.555010e-03 1.381372e+00 -4.369046e+00 160 165 37
3.598961e-01 9.474768e-01 -3.591991e+00 219 228 94
-2.667676e-01 9.741531e-01 -4.258214e+00 230 241 110
-2.700790e-01 4.595616e-01 -4.485597e+00 71 84 0
7.895789e-01 -2.472326e-01 -3.922320e+00 103 117 0
-7.848898e-01 -3.477416e-01 -4.266005e+00 178 132 31
1.697292e+00 -7.270583e-01 -5.036589e+00 175 183 97
-8.472811e-01 -6.307481e-01 -4.484141e+00 227 230 130
1.973428e+00 -1.282303e+00 -4.322265e+00 204 213 120
7.219114e-01 3.593874e-01 -4.125998e+00 146 148 38
-7.016567e-01 2.167393e-01 -4.567720e+00 215 228 123
-2.236132e+00 1.528936e-02 -6.125150e+00 226 234 135
5.590393e-01 6.711885e-02 -3.976086e+00 45 47 1
-6.072770e-01 -7.462060e-02 -4.237445e+00 135 152 19
-4.021549e-01 -3.386712e-01 -3.985555e+00 212 183 83
2.001782e+00 -5.842639e-01 -5.527341e+00 205 214 121
1.256174e+00 -7.325588e-01 -4.189267e+00 175 177 93
1.651339e+00 -9.652959e-01 -4.792740e+00 178 186 100
1.083614e+00 4.419863e-01 -4.782982e+00 212 228 129
1.083614e+00 4.419863e-01 -4.782982e+00 212 228 129
-3.667327e+00 5.000968e-01 -7.112437e+00 231 232 139
-4.579446e-03 3.324093e-01 -3.841057e+00 195 205 70
-3.226258e+00 7.930324e-02 -6.147295e+00 232 238 142
3.993279e-01 8.708476e-01 -3.872664e+00 170 179 50
5.888347e-01 1.160817e+00 -4.151149e+00 91 88 7
3.105984e-01 4.538677e-01 -3.512346e+00 104 88 0
1.534970e+00 -1.068181e-01 -4.549502e+00 208 219 123
-2.913562e+00 -3.220702e-01 -5.705201e+00 229 230 136
2.594946e-01 -1.030963e+00 -3.965720e+00 137 99 25
-2.971397e-01 -1.325880e+00 -3.560500e+00 215 218 127
3.263403e+00 5.965549e+00 -1.835446e+01 180 159 46
-1.505325e+00 4.765101e+00 -1.489026e+01 194 173 64
-1.744079e+00 5.148384e+00 -1.626230e+01 194 173 64
-8.733404e-01 4.589873e+00 -1.487878e+01 239 231 124
4.180221e-01 1.261500e+00 -4.483267e+00 113 115 5
8.422244e-02 3.174911e-01 -3.942411e+00 181 186 57
2.740456e-01 1.809230e-01 -3.976566e+00 127 114 2
9.535872e-01 3.022877e-02 -4.131284e+00 114 114 16
-5.493111e-01 1.466203e-01 -4.370196e+00 143 152 22
7.780013e-02 2.187806e-02 -3.869923e+00 145 129 7
9.987889e-01 -6.134338e-01 -3.943139e+00 166 125 43
9.165702e-01 6.672987e+00 -1.662445e+01 161 151 56
-1.093631e-01 1.436808e+00 -4.326744e+00 200 210 91
-8.883096e-02 1.409006e+00 -4.317746e+00 201 211 86
6.140592e-01 1.316482e+00 -4.517355e+00 106 102 11
-1.206237e-02 1.133095e+00 -4.266368e+00 229 240 102
3.188837e-02 6.846740e-01 -3.340211e+00 208 218 81
6.969106e-02 4.150139e-01 -3.948509e+00 185 192 64
-3.355557e-02 4.153037e-01 -4.159732e+00 195 205 80
-2.156721e-01 2.855592e-01 -4.412364e+00 119 127 8
4.123877e-01 -8.067112e-02 -3.806520e+00 109 111 8
1.240271e-01 -7.624095e-02 -3.744236e+00 128 128 5
4.411250e-01 -1.436366e-01 -3.803449e+00 162 157 65
4.409112e-01 -1.432176e-01 -3.802011e+00 162 157 65
-6.363683e-01 2.479957e-02 -4.277830e+00 140 156 19
-6.444601e-01 -2.835964e-02 -4.223289e+00 140 157 21
-7.768680e-02 -1.984676e-01 -3.628511e+00 145 147 4
-2.096091e-01 -2.525601e-01 -3.859532e+00 121 140 20
1.059606e+00 -7.759311e-01 -4.242102e+00 152 115 34
1.083128e+00 -9.186190e-01 -4.279723e+00 163 131 55
-2.275688e-01 -7.148007e-01 -3.968271e+00 164 126 43
-1.640453e-01 -7.680207e-01 -3.958664e+00 187 155 70
8.112120e-01 -1.101084e+00 -4.160046e+00 162 136 55
8.006563e-01 -1.146666e+00 -4.276718e+00 161 135 54
1.147333e+00 -1.230860e+00 -4.215939e+00 184 188 101
8.237103e-01 -1.200536e+00 -4.225718e+00 162 145 61
-7.865907e-01 -9.919206e-01 -4.662825e+00 211 190 98
9.454294e-01 -1.317902e+00 -3.950823e+00 200 198 111
-1.306015e-01 1.468838e+00 -4.379561e+00 218 226 114
5.266390e-01 1.254020e+00 -4.490968e+00 98 99 3
-1.916343e-01 1.277379e+00 -4.447977e+00 208 218 95
9.830425e-01 1.107741e+00 -4.613269e+00 215 224 115
-1.702263e-01 1.136043e+00 -4.248931e+00 230 242 104
8.070856e-02 9.315329e-01 -3.583992e+00 212 224 82
-4.057117e-01 8.870783e-01 -4.337325e+00 224 235 105
-4.299201e-01 8.608762e-01 -4.399941e+00 209 219 95
8.265060e-02 5.995723e-01 -3.407221e+00 159 164 46
-1.168716e-01 4.901893e-01 -4.211818e+00 179 194 65
9.921074e-01 2.702290e-01 -4.285229e+00 177 187 76
-1.549771e-01 4.171501e-01 -4.382396e+00 150 169 44
-5.210065e-01 4.141212e-01 -4.549545e+00 154 173 38
-3.341213e-02 2.882439e-01 -4.095385e+00 199 211 79
1.686013e-01 1.759380e-01 -3.912954e+00 147 143 10
1.206466e-01 1.719031e-01 -3.918252e+00 167 162 20
-2.834072e-01 2.343192e-01 -4.417485e+00 124 125 19
8.145609e-01 -8.636561e-02 -3.956813e+00 116 139 9
-6.704496e-01 -1.051196e-02 -4.356225e+00 153 158 30
-4.531044e-01 -9.498176e-02 -4.068319e+00 145 177 21
-6.962704e-01 -4.013994e-01 -4.207118e+00 204 149 49
-6.129201e-01 -5.520568e-01 -4.190325e+00 182 131 42
-7.173475e-01 -6.185291e-01 -4.475585e+00 180 135 50
-2.607824e-01 -6.792520e-01 -4.006764e+00 176 134 48
-1.746064e-01 -7.298389e-01 -3.943246e+00 160 123 40
8.416289e-01 -1.003043e+00 -4.214397e+00 184 162 77
3.917370e-01 -8.920646e-01 -4.004860e+00 144 102 26
5.945793e-01 -9.842364e-01 -4.084881e+00 177 162 79
9.462999e-01 -1.112468e+00 -4.315229e+00 163 133 53
-4.835245e-01 -8.228547e-01 -4.309162e+00 202 175 90
4.427559e-01 -1.259456e+00 -4.105757e+00 178 153 69
-3.211685e-01 -1.186992e+00 -4.281726e+00 200 184 96
4.551266e-01 -1.299266e+00 -3.963034e+00 192 182 93
-3.635703e-01 -1.201589e+00 -4.245227e+00 205 194 104
5.296799e+00 6.981273e+00 -2.069405e+01 181 166 57
6.853774e+00 5.527929e+00 -1.751188e+01 190 173 65
-2.073263e+00 1.333104e+00 -2.562892e+00 201 186 65
7.323450e-01 1.598609e+00 -4.720126e+00 209 215 115
-1.976721e-01 1.036949e+00 -4.258974e+00 231 243 106
3.759322e-01 8.092484e-01 -3.484150e+00 182 193 56
-1.099944e-01 8.305151e-01 -4.122677e+00 222 233 90
-1.060998e-01 8.301099e-01 -4.159840e+00 222 233 90
-9.702419e-03 7.234972e-01 -3.513494e+00 218 226 88
-4.354744e-01 7.149959e-01 -4.396964e+00 188 199 71
1.869266e-01 5.090717e-01 -3.542756e+00 102 92 3
2.423999e-02 5.126101e-01 -4.007821e+00 183 189 60
5.932212e-01 2.839915e-01 -3.831935e+00 98 87 0
-8.759709e-02 3.927522e-01 -4.243663e+00 154 168 45
-8.987377e-02 3.914856e-01 -4.240917e+00 154 168 45
3.646860e-02 3.329853e-01 -4.006542e+00 181 188 56
3.242996e-01 2.410497e-01 -3.796394e+00 104 73 8
1.117273e+00 1.574045e-01 -4.337872e+00 212 220 131
-1.693772e-01 2.873589e-01 -4.354660e+00 120 136 12
7.313143e-01 8.621630e-02 -4.103647e+00 117 127 21
-4.801069e-01 2.166112e-01 -4.431959e+00 96 96 0
3.257180e+00 -6.094211e-01 -5.392436e+00 211 214 123
-1.264538e-01 -2.280631e-01 -3.716628e+00 117 127 2
-1.431699e-01 -2.668174e-01 -3.797885e+00 129 147 23
-7.473466e-01 -3.892735e-01 -4.217713e+00 206 151 58
1.005457e+00 -9.056666e-01 -4.246829e+00 154 117 39
1.831326e+00 -1.134827e+00 -4.316872e+00 210 213 122
1.136925e+00 -1.015051e+00 -4.351215e+00 152 130 54
-7.395383e-01 -6.691114e-01 -4.498491e+00 135 98 9
-4.655400e-01 -6.952506e-01 -4.246369e+00 176 135 49
7.782407e-01 -9.606935e-01 -4.168899e+00 113 93 7
7.723331e-01 -9.572490e-01 -4.154402e+00 113 93 7
-3.194327e-01 -7.465592e-01 -4.085106e+00 178 131 49
-1.013325e-01 -7.810029e-01 -3.892926e+00 153 117 32
-1.657793e-01 -8.225356e-01 -3.999555e+00 131 104 17
1.615323e-01 -9.879570e-01 -4.007628e+00 160 115 37
7.818599e-01 -1.172792e+00 -4.227604e+00 135 113 30
-4.926010e-02 -9.736974e-01 -3.991271e+00 177 132 51
1.167047e+00 -1.263279e+00 -4.158387e+00 189 192 103
-6.568993e-01 -9.532895e-01 -4.537059e+00 201 157 72
4.078799e-01 -1.103692e+00 -4.072032e+00 161 115 38
-4.706756e-01 -1.024568e+00 -4.413469e+00 196 159 70
-3.913410e-01 -1.075496e+00 -4.387288e+00 199 164 76
4.263250e-01 -1.211965e+00 -4.081196e+00 149 117 35
-4.876975e-01 -1.086520e+00 -4.201228e+00 206 191 100
-1.454864e-02 -1.160019e+00 -4.039619e+00 199 142 61
-8.465228e-02 -1.182028e+00 -4.117665e+00 202 154 72
1.411504e+00 6.567616e+00 -1.926856e+01 197 182 66
-3.080329e-03 1.429835e+00 -4.338013e+00 160 168 56
-3.080329e-03 1.429835e+00 -4.338013e+00 160 168 56
3.499887e-01 1.338704e+00 -4.586372e+00 218 225 111
4.842792e+00 1.303260e+00 -8.952846e+00 205 211 115
-1.756154e-01 9.688897e-01 -4.169404e+00 213 225 87
-8.670868e-02 7.122098e-01 -4.015755e+00 229 238 100
-1.055271e-01 4.486806e-01 -4.131460e+00 201 213 85
8.677423e-01 -4.383920e-02 -4.040049e+00 126 144 21
-2.874735e-01 1.377119e-01 -4.286581e+00 109 112 0
-9.612816e-02 6.287357e-02 -3.798532e+00 173 164 3
-2.545454e-01 2.731440e-02 -4.192085e+00 112 142 0
-2.608753e-01 2.866997e-02 -4.166264e+00 112 142 0
8.808886e-01 -1.897464e-01 -3.919118e+00 131 141 17
-5.952550e-01 5.456832e-02 -4.314936e+00 121 129 10
-5.592803e-02 -5.059531e-02 -3.701228e+00 164 147 0
-5.976102e-01 -3.345679e-02 -4.231516e+00 148 166 33
-7.161280e-01 -4.105141e-02 -4.427097e+00 204 183 76
-3.522538e-01 -4.788016e-01 -3.906199e+00 175 124 33
4.854215e-01 -6.911291e-01 -3.991757e+00 177 122 42
1.088244e+00 -8.290911e-01 -4.257475e+00 112 83 0
-2.685368e-01 -5.809791e-01 -3.966588e+00 204 151 57
1.792561e-01 -6.701110e-01 -3.656650e+00 181 131 46
-5.842224e-01 -6.406748e-01 -4.378091e+00 185 135 51
1.006039e+00 -1.144367e+00 -4.318427e+00 134 109 27
-1.336449e-01 -8.654493e-01 -3.956480e+00 215 188 101
3.238093e-02 -8.953040e-01 -3.858296e+00 182 129 49
-4.079307e-01 -9.076117e-01 -4.282330e+00 202 181 90
-7.025245e-01 -9.013213e-01 -4.558459e+00 195 151 63
2.638286e-01 -1.043940e+00 -3.967418e+00 164 117 39
6.673399e-01 -1.203196e+00 -4.227147e+00 137 116 34
-7.011729e-01 -9.820649e-01 -4.548566e+00 166 132 43
5.520151e-01 -1.218833e+00 -4.182973e+00 140 114 33
8.563423e-01 -1.332166e+00 -3.858916e+00 204 200 111
-6.661508e-01 -1.171865e+00 -4.356801e+00 208 207 114
2.140856e-01 8.649297e-01 -3.438958e+00 193 206 66
1.833310e-01 6.531672e-01 -3.369720e+00 176 183 58
2.570616e-01 5.319554e-01 -3.528970e+00 50 34 0
3.951122e+00 2.946917e-01 -6.947255e+00 211 215 121
5.098076e-01 3.419298e-01 -3.601847e+00 181 170 72
-3.832953e-01 1.118311e-01 -4.280293e+00 159 179 38
-1.699961e-01 3.435156e-02 -3.863302e+00 220 227 95
4.050169e+00 -7.237173e-01 -5.281973e+00 210 213 122
2.696291e-01 -1.991642e-01 -3.775096e+00 119 142 9
1.729899e-01 -6.137078e-01 -3.650396e+00 154 102 18
7.496968e-01 -8.201624e-01 -4.119851e+00 116 80 0
-5.072246e-01 -5.974025e-01 -4.203984e+00 181 131 45
9.775470e-01 -9.556485e-01 -4.262175e+00 113 82 3
1.113055e-01 -8.437267e-01 -3.852379e+00 164 116 34
-4.147647e-01 -8.755498e-01 -4.275849e+00 199 174 84
8.446257e-01 -1.308904e+00 -4.207131e+00 182 178 89
1.530119e+00 -1.416214e+00 -3.751077e+00 216 220 126
6.701084e-01 -1.342109e+00 -4.064593e+00 189 183 97
-2.358379e+00 -8.971326e-01 -4.840578e+00 229 229 139
-2.337381e-01 1.153752e+00 -4.366384e+00 230 245 118
-7.940801e-02 9.093666e-01 -4.160066e+00 202 211 69
5.576282e-04 6.434646e-01 -3.425554e+00 210 220 89
-1.623166e-01 6.885342e-01 -4.186035e+00 164 175 38
-1.483965e-01 4.824087e-01 -4.331328e+00 194 211 79
1.061296e+00 2.247605e-01 -4.319585e+00 74 73 6
-5.559398e-01 3.537562e-01 -4.684897e+00 129 153 15
4.704098e+00 -4.582855e-01 -5.757708e+00 208 213 119
-1.350685e-01 1.691627e-01 -4.302468e+00 87 98 0
6.257781e-01 -4.988744e-02 -3.958680e+00 140 161 34
-5.496507e-01 -9.049317e-01 -4.408963e+00 217 207 112
2.279407e-01 2.821614e-01 -3.832361e+00 104 82 0
-2.822545e+00 8.411777e-01 -8.133638e+00 228 233 141
9.903578e-01 1.610222e-02 -4.177218e+00 109 106 11
1.338037e-01 -1.357525e-01 -3.765617e+00 88 97 1
-2.072291e-01 -9.890073e-02 -3.819845e+00 78 79 0
3.386269e+00 -7.978591e-01 -5.267152e+00 214 217 126
1.365103e+00 -4.287615e-01 -4.234776e+00 208 209 119
2.800337e+00 -1.052307e+00 -4.722109e+00 211 214 123
1.337463e+00 -8.121237e-01 -4.145851e+00 185 189 102
-2.385032e-01 -9.698707e-01 -4.175089e+00 124 98 13
-2.881066e+00 -6.959939e-01 -5.285479e+00 228 233 139
-2.965865e+00 -8.086373e-01 -5.198112e+00 237 243 147
-2.965865e+00 -8.086373e-01 -5.198112e+00 237 243 147
-1.940055e+00 -9.788009e-01 -4.893092e+00 228 233 141
8.682354e-01 -1.375870e+00 -3.741976e+00 217 218 125
-2.023297e+00 -1.018838e+00 -4.565980e+00 220 223 132
5.141732e-02 5.470858e-01 -3.697650e+00 114 107 0
-5.452939e-01 7.104913e-01 -4.557042e+00 215 229 117
-1.913492e+00 -1.056163e-02 -6.092087e+00 230 234 140
1.115302e+00 -4.993057e-01 -4.001282e+00 148 106 24
-8.178438e-01 -3.210383e-01 -4.094965e+00 171 125 27
-2.036526e-01 -4.207586e-01 -3.825857e+00 201 173 74
1.262585e+00 -7.681242e-01 -4.330620e+00 186 184 99
-2.107170e+00 -4.848451e-01 -5.601541e+00 228 231 140
1.580661e+00 -1.259252e+00 -4.311730e+00 194 198 111
1.296526e+00 -1.427795e+00 -3.794656e+00 216 217 124
8.874911e-01 -1.735885e-01 -3.857547e+00 125 136 16
4.543179e-01 9.433631e-01 -4.361102e+00 231 242 104
-3.210096e-02 2.949498e-01 -3.961220e+00 195 202 72
-1.513285e+00 -4.254270e-01 -5.914793e+00 220 225 131
4.245621e-01 3.893069e-01 -3.898824e+00 90 64 0
-1.714585e-02 1.315542e+00 -5.292407e+00 229 245 110
1.639667e+00 7.233259e-01 -3.986621e+00 206 216 119
1.639667e+00 7.233259e-01 -3.986621e+00 206 216 119
1.483839e+00 5.946244e+00 -1.862134e+01 182 164 49
2.303280e+00 5.240091e+00 -1.658536e+01 185 169 56
-2.329447e-01 2.272350e-01 -4.349285e+00 106 98 0
-4.443250e-01 -4.312730e-01 -3.989286e+00 198 152 56
6.018142e-01 5.598836e+00 -1.704339e+01 183 166 50
-1.433421e-01 7.561347e-01 -4.160882e+00 204 212 75
-4.191905e-02 4.144611e-01 -4.140183e+00 189 204 79
-3.772442e-01 2.836948e-01 -4.413123e+00 94 90 5
-5.704250e-01 -2.752118e-02 -4.198225e+00 136 148 14
4.095313e-01 -7.887772e-01 -3.956928e+00 160 117 33
-5.450600e-01 -7.097695e-01 -4.348018e+00 174 137 46
1.056946e+00 -1.179881e+00 -4.338815e+00 159 143 62
-4.198740e-02 -1.198208e+00 -4.114888e+00 193 143 54
4.414518e+00 5.439199e+00 -1.707098e+01 195 181 74
4.414518e+00 5.439199e+00 -1.707098e+01 195 181 74
3.605571e+00 4.719172e+00 -1.560487e+01 182 168 61
7.048589e-01 1.432192e+00 -4.499053e+00 219 225 129
9.252710e-01 2.665774e-01 -4.272064e+00 143 158 40
8.072573e-01 -3.018511e-01 -3.859670e+00 154 128 28
3.628991e-01 -1.029776e+00 -3.989325e+00 157 115 35
6.550357e-01 -1.307502e+00 -3.886888e+00 192 192 102
9.560375e-01 1.300088e+00 -4.647923e+00 217 223 123
1.330067e-02 -1.314974e+00 -4.016248e+00 206 186 96
1.746966e+00 -1.156793e+00 -4.402303e+00 206 215 124
3.042336e-01 -8.765608e-01 -3.966622e+00 156 115 33
2.359205e+00 6.207150e+00 -1.867606e+01 143 124 20
2.359205e+00 6.207150e+00 -1.867606e+01 143 124 20
-1.970513e+00 5.482711e+00 -1.669310e+01 198 180 70
2.153464e-01 8.642987e-01 -3.439786e+00 197 207 74
-2.683408e+00 9.847197e-01 -8.217338e+00 221 226 134
-6.697055e-01 -1.159941e+00 -4.351770e+00 205 205 109
-2.873610e+00 -1.123565e+00 -4.384035e+00 233 243 147
2.239443e+00 5.456586e+00 -1.708592e+01 202 185 70
-3.837687e-01 1.067533e+00 -4.540536e+00 214 224 119
1.634350e+00 -1.202791e+00 -4.372672e+00 187 195 109
2.202166e+00 -1.393058e+00 -3.458448e+00 213 216 127
5.493662e-01 -1.221169e+00 -3.990020e+00 177 165 79
4.884881e+00 1.847724e+00 -1.000041e+01 209 215 119
-5.057566e-02 6.299056e-01 -3.652906e+00 149 155 25
-2.078479e-02 -2.800766e-01 -3.695266e+00 99 118 0
3.396605e-01 7.922361e-01 -3.486416e+00 177 188 57
-1.797251e-01 7.440414e-01 -4.156822e+00 185 196 58
2.543655e-01 7.140242e-01 -3.355079e+00 176 187 60
8.087153e-01 3.136149e-01 -4.253472e+00 148 160 52
5.207185e-02 4.670773e-02 -3.736313e+00 139 121 11
8.204431e-02 -2.789155e-02 -3.681561e+00 146 128 0
1.207998e+00 -4.462398e-01 -3.972077e+00 175 158 80
2.114030e-01 -5.938153e-01 -3.682017e+00 163 110 34
-2.731625e-01 -1.021248e+00 -4.192032e+00 154 122 35
2.547850e+00 5.611097e+00 -1.767830e+01 200 184 66
6.975608e-01 1.171815e+00 -4.513930e+00 77 75 6
8.854667e-01 1.103231e+00 -4.567261e+00 133 137 14
9.499972e-01 1.095580e+00 -4.569005e+00 211 219 118
9.499972e-01 1.095580e+00 -4.569005e+00 211 219 118
3.503194e-01 6.796777e-01 -3.454646e+00 153 161 43
-1.657191e-01 2.736989e-01 -4.323836e+00 126 137 17
-2.361477e-01 1.988932e-01 -4.313610e+00 188 176 75
6.974909e-01 2.567402e-01 -3.968761e+00 118 105 7
9.193464e-01 2.172741e-01 -4.334073e+00 109 121 20
6.742528e-01 2.128962e-01 -3.976726e+00 120 105 12
1.014436e+00 5.603105e-02 -4.179638e+00 119 119 26
-7.002586e-01 -4.905102e-02 -4.278216e+00 187 181 65
-3.140743e-01 -1.865180e-02 -4.107689e+00 143 173 14
-9.240415e-02 -6.344647e-01 -3.746170e+00 187 137 50
-3.189708e-01 -8.432845e-01 -4.157525e+00 185 154 63
1.760010e-01 -1.175482e+00 -4.073344e+00 163 107 32
-5.838248e+00 3.543415e+00 -1.327855e+01 232 237 145
1.882580e-01 1.155167e+00 -4.233601e+00 199 209 86
6.316833e-01 1.134608e+00 -4.455481e+00 104 106 7
2.131895e-01 1.101271e+00 -4.280759e+00 179 188 61
3.110525e-01 9.318409e-01 -3.458091e+00 216 226 95
8.403167e-01 9.436787e-01 -4.531345e+00 106 109 9
2.760813e-01 7.359933e-01 -3.387957e+00 178 189 61
6.922513e-01 6.601913e-01 -4.119299e+00 141 116 23
2.454830e-01 6.367976e-01 -3.403369e+00 139 141 29
6.154957e-01 5.941343e-01 -3.864268e+00 142 100 22
9.793725e-01 5.678958e-01 -4.487282e+00 100 107 5
-2.136738e-01 2.802014e-01 -4.372808e+00 109 116 1
-3.557302e-02 2.905293e-01 -4.044449e+00 202 214 78
9.163891e-02 2.245390e-01 -3.854467e+00 164 161 26
1.257404e-01 1.710150e-01 -3.960631e+00 172 169 37
6.303182e-01 1.343361e-01 -4.012347e+00 108 100 18
-4.118943e-01 -1.051760e-01 -4.056898e+00 129 161 9
9.802090e-01 -6.473175e-02 -4.037447e+00 106 113 8
-8.240822e-01 -2.210140e-01 -4.279973e+00 199 185 80
1.030891e-01 -1.037102e+00 -4.004083e+00 162 109 29
7.157529e-01 -1.062803e+00 -4.170140e+00 141 114 40
1.154893e+00 -1.134715e+00 -4.243090e+00 166 167 87
1.655504e+00 -1.223414e+00 -4.265817e+00 196 209 121
1.919570e-02 -1.240032e+00 -3.970680e+00 183 146 57
4.376092e-01 8.572824e-01 -3.580820e+00 166 178 50
8.348556e-01 8.570209e-01 -4.576200e+00 92 92 2
-1.294994e-01 5.931320e-01 -4.172373e+00 198 209 81
7.746750e-01 4.435088e-01 -4.287265e+00 190 177 75
5.601822e-01 4.066912e-01 -3.833006e+00 117 85 12
6.972613e-01 3.495494e-01 -4.101398e+00 148 140 39
1.002687e+00 2.905736e-01 -4.305026e+00 185 196 100
6.648098e-01 2.356727e-01 -4.042239e+00 161 146 51
1.796978e-01 1.640513e-01 -4.033947e+00 139 129 9
1.053897e-01 9.429552e-02 -3.845155e+00 141 136 10
-7.198508e-01 -1.639211e-01 -4.248060e+00 199 169 66
1.010401e+00 -1.115321e-01 -4.080392e+00 124 132 28
1.041493e+00 -1.449912e-01 -4.257403e+00 124 132 28
9.207188e-01 -2.874859e-01 -3.938023e+00 149 125 36
-8.451062e-01 -8.452196e-01 -4.534253e+00 208 208 110
-3.805791e-01 -1.205075e+00 -4.400589e+00 201 189 95
9.754178e-01 -1.156327e+00 -4.231272e+00 155 141 66
1.286348e+00 -1.205797e+00 -4.101157e+00 186 196 109
-3.315278e+00 2.850225e+00 -1.179139e+01 216 226 127
6.015069e-01 1.271120e+00 -4.526473e+00 61 60 0
6.108468e-03 1.214981e+00 -4.274596e+00 199 212 71
7.245222e-01 1.108598e+00 -4.533217e+00 63 60 0
8.515845e-01 7.920186e-01 -4.325037e+00 118 120 10
-4.394135e-01 7.264700e-01 -4.436490e+00 200 210 88
4.369516e-01 6.997687e-01 -3.455474e+00 140 146 35
6.676697e-01 4.695740e-01 -4.022889e+00 128 95 10
6.171664e-01 4.237519e-01 -3.852041e+00 157 139 50
5.641488e-01 3.452909e-01 -3.823773e+00 144 127 43
5.641488e-01 3.452909e-01 -3.823773e+00 144 127 43
1.236619e+00 2.570782e-01 -4.936885e+00 206 214 127
5.868636e-01 2.835439e-01 -3.837251e+00 92 75 0
5.344127e-01 2.270680e-01 -3.847050e+00 123 106 18
1.177185e+00 1.496114e-01 -4.538876e+00 152 133 49
-1.103245e-01 1.376519e-01 -4.080531e+00 217 219 72
-1.840316e-01 2.299771e-02 -3.840811e+00 220 228 83
9.515862e-02 3.800551e-02 -3.837585e+00 84 68 0
-1.368709e-01 -9.524312e-02 -3.722269e+00 183 174 31
-1.728940e-01 -1.578932e-01 -3.763838e+00 97 105 0
-4.946567e-01 -4.314032e-01 -4.025597e+00 181 134 38
-1.338528e-01 -8.614709e-01 -3.946381e+00 209 182 95
1.304212e+00 -1.051294e+00 -4.338150e+00 182 186 104
-1.518921e+00 -1.194065e+00 -3.960302e+00 225 235 138
-1.441791e+00 -1.237576e+00 -3.818455e+00 226 232 134
8.151114e-01 -1.251380e+00 -4.009069e+00 174 174 88
-4.294267e+00 3.590629e+00 -1.353618e+01 220 226 130
6.627857e-01 1.400720e+00 -4.557026e+00 114 117 19
5.640057e-02 1.152413e+00 -4.211234e+00 233 245 111
-3.526775e+00 1.252679e+00 -8.704234e+00 227 233 135
1.372925e-01 1.121202e+00 -4.168471e+00 195 205 73
6.450393e-01 1.059349e+00 -4.424340e+00 124 127 13
-1.797993e-01 9.740790e-01 -4.201694e+00 214 226 89
-3.867659e+00 8.716344e-01 -8.142237e+00 232 236 142
6.237764e-01 6.635877e-01 -4.047737e+00 167 143 50
1.022475e+00 4.530967e-01 -4.831592e+00 212 220 119
1.317259e-01 3.446204e-01 -3.632067e+00 110 100 0
4.051042e-01 1.748164e-01 -3.879642e+00 58 42 0
2.318295e-01 1.544204e-01 -3.933105e+00 153 145 38
2.318295e-01 1.544204e-01 -3.933105e+00 153 145 38
-6.351408e-01 -9.160223e-02 -4.217597e+00 119 124 1
1.140293e+00 -9.270415e-02 -4.372203e+00 146 126 39
-1.890281e+00 -4.890439e-01 -5.515566e+00 219 225 127
9.093774e-01 -4.539620e-01 -3.744013e+00 139 91 17
1.990663e+00 -8.226681e-01 -5.105760e+00 196 205 114
1.805015e+00 -8.298930e-01 -4.904691e+00 196 206 119
-2.951566e+00 -1.184486e+00 -4.530673e+00 236 241 149
-2.174721e+00 -1.179482e+00 -4.448158e+00 222 228 132
1.436828e+00 -1.078485e+00 -4.583601e+00 183 191 108
7.591204e-01 -1.026460e+00 -4.164821e+00 179 152 80
-4.847998e-02 -1.251143e+00 -4.151345e+00 187 142 55
1.628106e+00 -1.306966e+00 -4.322052e+00 191 204 116
1.541066e-01 -1.355373e+00 -4.033102e+00 198 183 96
-3.590287e+00 3.339952e+00 -1.247996e+01 219 226 130
-8.055833e-02 9.083821e-01 -4.146895e+00 200 211 70
2.139528e-01 8.649988e-01 -3.452078e+00 184 195 65
-1.625118e-01 6.889933e-01 -4.113758e+00 164 174 43
-3.321858e-01 -1.202787e-01 -3.942639e+00 151 173 26
-2.862890e+00 -8.511035e-01 -4.797511e+00 228 231 140
-3.210823e+00 -1.025352e+00 -4.439231e+00 221 231 135
-2.893865e+00 -1.425293e+00 -3.996970e+00 229 235 139
-2.097198e-01 -8.945747e-02 -3.809278e+00 77 84 0
1.722387e-01 -1.423587e-01 -3.868354e+00 73 82 0
-2.764939e+00 -6.528805e-01 -4.945201e+00 224 228 134
1.122009e+00 -3.095116e-01 -3.887510e+00 167 123 50
-9.661547e-03 1.381245e+00 -4.383740e+00 148 157 32
2.719523e-01 1.287095e+00 -4.346597e+00 213 224 122
-5.665226e-01 6.495248e-02 -4.311221e+00 177 171 58
-4.060601e-01 -7.750846e-03 -4.006588e+00 168 197 41
-4.181812e-01 -2.580254e-02 -4.117326e+00 168 197 41
9.396973e-01 2.083208e-02 -4.099630e+00 123 122 33
9.396973e-01 2.083208e-02 -4.099630e+00 123 122 33
2.898042e-01 -2.986663e-02 -3.888418e+00 130 141 11
-2.086354e+00 -4.776955e-01 -5.542475e+00 224 230 132
3.690385e-03 -2.654033e-01 -3.786760e+00 95 102 0
1.732747e+00 -7.443172e-01 -5.235387e+00 171 183 98
1.111905e+00 -5.023852e-01 -3.980666e+00 139 100 23
-2.679870e+00 -1.197129e+00 -4.031798e+00 227 232 138
-2.922340e+00 -3.271649e-01 -5.740395e+00 226 230 135
-3.993207e+00 -1.057930e+00 -6.681790e+00 232 236 142
2.626164e-01 8.541228e-01 -3.452561e+00 201 211 80
9.168943e-01 7.666412e-01 -4.567940e+00 103 102 0
4.459218e-01 4.050972e-01 -3.786429e+00 86 58 7
8.531956e-01 2.699724e-01 -4.243135e+00 134 142 41
2.757820e+00 1.346559e+00 -3.549128e+00 206 206 111
8.929231e-01 1.094080e+00 -4.583142e+00 131 139 18
8.823658e-01 4.310976e-01 -4.461169e+00 139 140 40
9.610032e-01 2.897404e-01 -4.285171e+00 162 173 75
2.063639e-01 -6.106747e-02 -3.854495e+00 121 125 0
-2.695978e-02 -2.241692e-01 -3.725216e+00 118 127 4
-3.340067e-01 6.832740e-01 -4.316239e+00 192 203 77
4.716832e-01 2.391188e-01 -3.766723e+00 90 73 0
1.626356e-01 -2.838121e-01 -3.731492e+00 106 131 4
-1.822483e-01 -7.212997e-01 -3.899256e+00 166 128 45
-8.716474e-02 -8.208340e-01 -3.930134e+00 157 115 34
-1.457591e-01 1.408469e+00 -4.332333e+00 193 205 89
-6.236511e-01 -1.499924e-01 -4.205591e+00 186 168 66
-5.219032e-01 -1.062879e+00 -4.455843e+00 169 142 58
1.147519e+00 -7.248333e-01 -4.289468e+00 147 116 46
1.177318e+00 -1.203454e+00 -4.340014e+00 179 175 96
-3.449258e+00 8.535499e-01 -7.737378e+00 233 233 145
-3.772984e+00 8.532215e-01 -7.908062e+00 232 237 147
2.009681e+00 -5.721204e-01 -5.148978e+00 212 219 139
-3.005278e+00 -4.938507e-01 -5.447708e+00 227 230 143
-2.950932e+00 -9.847943e-01 -4.630887e+00 235 239 152
1.537782e+00 -1.381618e+00 -3.312241e+00 215 217 133
-3.487836e+00 8.639118e-01 -7.848706e+00 233 233 145
8.209393e-02 2.764461e-01 -3.750248e+00 193 193 68
-3.494575e+00 5.427624e-01 -7.449169e+00 231 232 144
-3.517048e+00 5.445002e-01 -7.533472e+00 231 232 144
-2.021881e+00 -1.034669e+00 -5.243855e+00 226 235 142
2.798641e+00 -5.303657e-01 -5.279980e+00 216 219 140
3.568171e-01 -4.558466e-01 -3.666174e+00 178 134 59
5.623806e-01 1.552720e+00 -4.508998e+00 206 219 127
8.315803e-01 1.514572e+00 -4.564820e+00 203 218 125
1.398767e+00 9.818712e-01 -2.285955e+00 212 222 118
1.231171e-01 -1.019932e+00 -3.898517e+00 154 107 29
-4.153986e-02 -1.676720e-01 -3.625733e+00 136 132 4
2.578054e-01 -2.899215e-01 -3.727753e+00 103 124 3
3.305035e+00 1.348169e+00 -8.872072e+00 215 218 129
3.729274e+00 8.239061e+00 -2.298872e+01 182 171 65
-1.004473e+00 1.421907e+00 -3.262004e+00 185 180 66
2.916624e+00 2.430673e+00 -7.213013e+00 179 166 62
-3.743405e-01 2.459104e-01 -4.429405e+00 87 81 14
3.982145e-01 1.541659e+00 -4.652325e+00 213 223 124
2.330911e+00 -6.055159e-01 -5.280724e+00 210 219 126
-1.601747e-01 7.535609e+00 -2.441170e+01 198 181 62
4.570237e+00 7.325553e+00 -2.109505e+01 164 156 47
5.089582e+00 4.777572e+00 -1.481478e+01 191 174 66
-1.586705e+00 1.471090e+00 -9.120712e+00 213 228 127
9.679773e-01 -1.047146e-01 -4.024170e+00 116 131 12
3.098213e-01 8.060498e-01 -3.440148e+00 182 192 61
9.144727e-01 1.254025e+00 -4.651913e+00 105 112 3
-3.012224e+00 1.049336e+00 -8.353304e+00 218 224 126
6.260102e-01 -1.133414e+00 -4.136207e+00 152 118 44
-3.833085e-01 5.139115e+00 -1.547332e+01 182 165 51
-5.760567e-03 3.715159e-01 -4.103640e+00 205 214 87
-6.062683e-01 3.160013e-01 -5.037309e+00 188 184 80
-8.362399e-02 1.657134e-01 -3.916345e+00 203 208 62
-7.059214e-01 -9.624960e-01 -4.617463e+00 197 154 66
-2.647461e-01 -1.059597e+00 -4.242079e+00 170 130 45
7.624095e+00 9.483686e+00 -2.540062e+01 157 142 45
-5.757443e+00 8.773033e+00 -2.649791e+01 208 194 72
-6.523726e-01 4.413817e+00 -1.476602e+01 221 225 125
-1.331517e-01 1.146175e+00 -4.258606e+00 231 243 105
-4.883067e-01 4.583069e-01 -4.584586e+00 205 220 91
-3.735981e-01 2.821615e-01 -4.417407e+00 92 89 7
-1.615277e-01 -7.681330e-01 -3.968503e+00 187 155 70
-2.494368e+00 1.004927e+01 -2.604142e+01 174 161 63
7.019991e-01 1.083244e+00 -2.137776e+00 179 165 66
1.361690e-01 6.982774e-01 -3.333479e+00 202 213 81
1.311467e+00 3.151821e-01 -4.542671e+00 213 224 128
-3.626552e-02 2.866211e-01 -4.085574e+00 199 211 79
6.956159e-01 -1.576079e-01 -3.893927e+00 118 148 14
-7.369080e-02 -7.550051e-01 -3.860339e+00 178 136 52
-3.232544e-01 -8.076637e-01 -4.179400e+00 162 125 40
-1.673467e+00 7.382816e+00 -2.103008e+01 197 181 70
-5.148770e-02 6.326620e-01 -4.128278e+00 183 193 59
-2.953247e-01 5.463174e-01 -4.436157e+00 149 161 32
1.366314e+00 -1.121809e+00 -4.553134e+00 185 189 103
1.199916e+00 -1.211896e+00 -4.376846e+00 173 176 89
1.074756e+00 -1.249024e+00 -4.254753e+00 184 180 95
8.397648e-01 -7.340862e-01 -4.087630e+00 129 87 5
8.191388e-01 -7.267126e-01 -4.039900e+00 129 87 5
1.735440e+00 -1.150444e+00 -4.472067e+00 206 213 120
-5.544551e-01 -1.097464e+00 -4.392154e+00 210 196 107
1.035258e+01 1.053871e+01 -2.787205e+01 179 167 75
1.385937e+00 -1.238858e+00 -3.987036e+00 195 198 109
9.502265e-02 2.904729e-01 -3.878244e+00 190 192 57
-3.941842e-01 1.119933e+00 -4.449935e+00 214 224 116
-6.637417e-01 -6.723989e-01 -4.472537e+00 148 104 17
-1.898569e-01 1.161176e+00 -4.429171e+00 229 245 110
6.255976e-01 1.395180e+00 -4.532067e+00 138 134 29
1.026857e+00 1.272588e+00 -4.739073e+00 216 224 124
-1.290712e-01 1.253620e+00 -4.432594e+00 229 237 102
-8.679596e-02 3.490142e-01 -4.303872e+00 153 172 54
-3.203061e-01 -3.993201e-03 -4.047547e+00 141 171 15
-6.753712e-01 -4.624226e-02 -4.255798e+00 143 154 15
8.683305e-01 1.231354e+00 -4.671705e+00 109 113 4
-4.258007e-02 4.154615e-01 -4.140139e+00 189 204 79
-1.189382e-01 -9.283228e-01 -3.987649e+00 175 142 55
2.623812e-01 1.113100e+00 -4.316204e+00 196 202 64
-4.057044e-01 8.878920e-01 -4.336272e+00 223 232 103
-3.851410e-02 7.965601e-01 -3.780265e+00 218 226 88
1.014614e+00 6.059492e-01 -4.480890e+00 224 226 125
-4.308915e-01 6.372220e-01 -4.509331e+00 191 200 73
-1.308351e-02 3.235815e-01 -4.042475e+00 210 220 90
-6.376088e-01 8.457764e-02 -4.376345e+00 161 167 33
-6.941588e-01 -1.189456e-01 -4.319943e+00 186 169 53
-7.792110e-02 -3.254098e-01 -3.723968e+00 136 143 17
-4.919580e-01 -9.521667e-01 -4.367342e+00 162 139 45
-5.305393e-01 -9.724920e-01 -4.407690e+00 177 147 56
-1.725498e-01 -1.093647e+00 -4.186797e+00 184 143 53
-4.085984e-01 -1.170276e+00 -4.455500e+00 199 186 90
6.195579e-01 1.421591e+00 -4.514561e+00 128 126 28
-7.685500e-02 7.843823e-01 -4.155573e+00 197 206 65
7.602150e-02 6.042375e-01 -3.414028e+00 162 165 49
1.768428e-01 5.458247e-01 -3.492168e+00 102 91 3
3.666538e-02 3.330385e-01 -4.006811e+00 181 187 57
-2.220927e-01 -4.550778e-02 -3.905490e+00 118 131 4
-4.099314e-01 -1.012127e-01 -4.049698e+00 134 163 9
-3.364529e-01 -1.503794e-01 -3.966029e+00 148 178 33
-5.715586e-01 -4.609584e-01 -4.108068e+00 208 157 60
-1.137441e-02 -1.012706e+00 -3.991416e+00 188 135 55
6.398619e+00 5.447998e+00 -1.783313e+01 169 156 52
1.378772e-01 8.381851e-01 -3.459130e+00 204 214 81
-3.491203e-02 2.040651e-01 -3.938625e+00 218 222 72
4.138971e+00 -6.381553e-01 -5.404504e+00 215 218 127
-1.430226e+00 -2.394030e-01 -6.143270e+00 220 230 131
-1.768858e+00 -2.090903e-01 -6.183892e+00 221 227 131
1.225647e+00 -1.229747e+00 -4.212548e+00 193 200 114
-8.980410e-01 -1.034576e+00 -4.574682e+00 208 214 114
1.316330e+00 -1.557096e+00 -3.120261e+00 218 221 130
-2.604341e-01 1.346678e+00 -4.367424e+00 217 224 121
-3.701113e-01 1.027440e+00 -8.488283e+00 210 222 122
-4.896172e-01 2.754272e-01 -4.489156e+00 112 111 7
2.769805e-02 2.009461e-01 -3.800322e+00 156 150 0
3.706805e+00 -7.181833e-01 -5.624565e+00 203 206 115
-2.120599e-01 8.595032e-02 -4.239242e+00 165 186 45
-5.571658e-01 2.767583e-02 -4.236275e+00 129 127 8
1.200888e+00 -4.387976e-01 -3.964217e+00 204 203 111
-8.156635e-01 -4.462794e-01 -4.410083e+00 184 150 43
1.139610e+00 -9.209011e-01 -4.286775e+00 189 177 95
-4.919817e-01 -8.602827e-01 -4.303347e+00 217 201 105
1.103841e+00 -1.309222e+00 -4.044193e+00 200 203 114
-2.603833e+00 1.203480e+00 -8.681866e+00 220 225 135
2.936242e-01 4.553566e-01 -3.547267e+00 116 96 1
1.867786e-02 -1.897735e-01 -3.649096e+00 101 110 0
-4.496039e-01 -1.545719e-01 -4.084199e+00 93 115 0
-2.305819e-01 -8.180808e-01 -4.044566e+00 195 166 77
-5.911813e-02 -8.930151e-01 -3.909006e+00 137 99 14
-5.878310e-01 -1.014224e+00 -4.421075e+00 174 140 51
-1.628300e-02 1.376288e+00 -4.406535e+00 169 173 49
2.630339e+00 -1.360067e+00 -4.180006e+00 210 215 125
2.252624e-01 9.839650e-01 -3.697617e+00 232 239 106
-5.772313e-01 6.060410e-02 -4.246445e+00 138 133 18
-2.578569e+00 1.444429e-01 -6.695250e+00 230 233 142
-1.924692e-01 -2.522114e-01 -3.657279e+00 130 142 18
4.221563e-01 1.220981e+00 -4.145375e+00 64 66 0
3.190645e-01 3.378614e-01 -3.617602e+00 69 39 2
1.297834e+00 2.387888e+00 -4.694427e+00 175 162 50
-2.655518e-01 1.563103e-01 -4.278414e+00 124 124 18
1.071974e+00 -1.271934e+00 -4.174835e+00 182 186 100
-1.754742e-01 2.037862e-01 -4.277590e+00 119 116 16
-6.370307e-01 9.002072e-02 -4.341548e+00 184 182 71
1.389057e+00 -9.884490e-02 -4.806011e+00 173 155 69
4.186765e-01 1.224678e+00 -4.520746e+00 75 78 0
9.482340e-01 7.488273e-01 -4.544924e+00 103 107 11
2.849934e-01 6.645255e-01 -3.416513e+00 146 150 39
1.076671e+00 -2.963304e-01 -4.053535e+00 159 123 45
6.915990e-02 -5.540199e-01 -3.678947e+00 178 133 47
1.125810e+00 -1.182625e+00 -4.392692e+00 155 139 63
1.040738e+00 -1.227898e+00 -4.295037e+00 162 156 78
-5.147082e-01 -6.830854e-01 -1.966786e+00 214 221 118
-5.912348e-01 -1.243137e+00 -4.089121e+00 214 218 121
1.462032e-01 -1.223720e+00 -4.072432e+00 176 119 40
-2.656280e+00 1.200832e+00 -8.821720e+00 213 223 124
1.749184e+00 -4.926019e-01 -5.517719e+00 186 195 112
1.869457e+00 -7.398394e-01 -5.098261e+00 195 208 120
-2.073239e+00 -1.086220e+00 -4.407075e+00 228 233 139
-2.913009e+00 1.320377e+00 -9.106622e+00 219 229 130
-3.493321e+00 6.807685e-01 -7.889774e+00 225 229 134
3.860243e+00 5.458914e+00 -1.710377e+01 193 181 73
-5.499208e-01 8.877120e-02 -4.266448e+00 195 195 82
-4.021451e-01 6.451596e-01 -4.454521e+00 167 177 52
-4.021451e-01 6.451596e-01 -4.454521e+00 167 177 52
-1.293649e-01 4.342671e-02 -3.799570e+00 162 162 8
-3.711098e-01 -1.167286e+00 -4.310563e+00 206 188 101
6.822203e+00 1.074976e+01 -2.698416e+01 141 146 73
1.971827e-01 3.616734e+00 -9.343472e+00 186 175 61
6.966237e+00 5.522555e+00 -1.814535e+01 169 156 54
-3.639311e-01 3.728328e-01 -4.462664e+00 176 192 68
-7.946284e-01 -6.880433e-02 -4.390216e+00 223 229 132
-2.252849e+00 2.064156e+00 -5.296474e+00 189 173 66
1.039921e+01 6.395124e+00 -1.964079e+01 155 138 46
6.290104e-01 -1.258469e+00 -4.167614e+00 177 161 83
-2.359058e+00 3.389916e+00 -1.310707e+01 213 225 127
-5.156551e-01 1.457686e-01 -4.302931e+00 129 138 9
-1.736277e-01 2.062753e-01 -4.268901e+00 118 113 9
9.856956e-01 3.174672e-01 -4.350924e+00 168 177 72
-2.919118e-01 4.546376e-03 -4.125175e+00 137 166 12
-7.837598e-01 -1.494118e-01 -4.251109e+00 208 196 89
4.989201e-01 1.197283e+00 -4.493982e+00 90 90 0
6.282569e-01 1.018429e+00 -4.383662e+00 101 96 0
1.030559e-01 1.295164e+00 -4.496646e+00 205 211 92
7.638089e-01 1.263769e+00 -4.559159e+00 92 90 5
8.916489e-01 1.066526e+00 -4.644463e+00 131 133 13
7.184676e-01 1.016428e+00 -4.479397e+00 85 83 0
-3.122990e-01 8.536812e-01 -4.243541e+00 213 223 90
1.400101e-01 3.986707e-01 -3.551896e+00 123 110 1
-6.069004e-01 -6.965632e-02 -4.248210e+00 146 162 25
1.414491e+00 -2.929048e-02 -4.925609e+00 176 150 66
6.616417e-01 -2.051845e-01 -3.820289e+00 108 136 13
9.842759e-01 1.369252e+00 -4.717392e+00 211 217 121
2.132797e-01 1.202770e+00 -4.467878e+00 189 195 80
2.756001e-01 7.358751e-01 -3.390217e+00 177 186 61
7.923592e-01 4.978037e-01 -4.403123e+00 91 75 0
-5.679920e-01 2.035977e-01 -4.404221e+00 150 166 39
6.888229e-01 5.284715e-02 -4.046778e+00 90 103 9
-5.729714e-01 -4.111314e-01 -4.099909e+00 184 135 37
1.756201e+00 4.028650e-01 -7.245474e+00 216 221 131
4.724344e-01 -1.156216e-01 -3.863312e+00 92 88 1
-2.499325e+00 -8.601951e-01 -4.742228e+00 225 229 135
-4.460040e-01 -1.065549e+00 -4.398118e+00 177 160 68
4.385601e-01 -1.077928e+00 -4.079633e+00 138 102 31
3.372942e-01 -1.168621e+00 -4.062072e+00 156 112 37
-1.964131e+00 -1.439495e+00 -3.131716e+00 227 227 137
8.274760e-01 1.333102e+00 -4.617030e+00 214 219 120
-2.371619e-01 9.538602e-02 -4.201547e+00 167 183 40
-6.889594e-01 -6.131785e-01 -4.350158e+00 160 117 25
1.618843e+00 -6.413542e-01 -5.298349e+00 177 176 94
-1.040592e+00 -1.416611e+00 -3.367995e+00 216 222 126
-1.400793e+00 -1.553751e+00 -2.941927e+00 219 223 129
-2.638652e+00 8.494359e-01 -8.231158e+00 222 233 131
-9.678447e-01 -1.373895e+00 -3.742246e+00 211 218 122
-1.070880e+00 -1.413918e+00 -3.230592e+00 225 231 135
-1.790689e+00 -1.264695e+00 -3.931482e+00 227 233 137
-6.374046e-01 -1.208683e+00 -4.182321e+00 213 223 127
-2.072558e+00 -4.487643e-01 -5.589007e+00 220 230 131
-3.797666e+00 -7.718770e-03 -6.392667e+00 236 236 146
-3.797666e+00 -7.718770e-03 -6.392667e+00 236 236 146
-8.250251e-01 -5.833868e-01 -4.321699e+00 225 232 130
-3.358874e+00 9.170716e-02 -6.618196e+00 230 234 140
-8.850254e-02 -1.138705e+00 -4.136129e+00 188 142 58
7.507885e+00 6.462461e+00 -1.849086e+01 167 148 45
6.002430e+00 7.185242e+00 -2.136315e+01 180 168 56
-3.846932e+00 7.704583e-01 -7.877211e+00 227 231 137
5.414322e-01 1.431700e+00 -4.549442e+00 211 222 114
-2.852722e+00 -6.945733e-01 -5.133599e+00 228 231 140
-5.422849e-01 4.384550e+00 -1.457664e+01 231 227 133
1.348853e-01 6.352509e-01 -3.398691e+00 174 178 58
-5.362276e-01 1.247478e-01 -4.291074e+00 124 128 14
-6.018201e-01 -3.689758e-01 -4.103002e+00 213 163 74
-7.357120e-01 -6.293879e-01 -4.512665e+00 200 146 66
5.754223e-02 6.900843e-01 -3.406003e+00 210 223 92
2.023068e-01 5.622784e-01 -3.485585e+00 108 97 11
-5.977817e-01 2.052577e-01 -4.521319e+00 140 162 28
-4.530394e-01 -9.173088e-01 -4.316116e+00 172 145 58
-6.027502e-01 2.828738e-01 -5.390037e+00 189 179 88
-6.670543e-02 5.732728e-01 -4.202058e+00 187 201 78
-1.428668e-01 3.562359e-01 -4.430236e+00 91 107 0
-6.586533e-01 -3.770848e-01 -5.912081e+00 215 215 127
-5.618632e-01 -7.497359e-01 -4.361073e+00 225 187 106
-6.550085e-01 -8.248666e-01 -4.508811e+00 137 99 14
8.398033e-01 -3.387952e-02 -4.016469e+00 130 147 33
1.010477e+00 -2.136943e-01 -4.017488e+00 119 125 28
6.516970e+00 2.668283e+00 -1.187465e+01 200 214 117
-8.733446e-02 -1.383106e-01 -3.671065e+00 214 203 54
-8.209799e-01 3.044629e-01 -7.214160e+00 218 228 139
-2.989487e-01 3.124348e-01 -4.344593e+00 149 161 45
4.381940e+00 7.477406e+00 -2.146450e+01 160 149 41
5.876138e+00 7.091617e+00 -2.114994e+01 179 167 59
8.060953e+00 4.914637e+00 -1.654935e+01 181 167 63
8.666103e+00 6.722453e+00 -2.061376e+01 141 123 23
-1.248439e+00 1.204115e+01 -3.068067e+01 149 151 69
-5.092290e+00 1.055606e+01 -2.597003e+01 47 52 1
1.431314e+01 4.503713e+00 -1.532810e+01 226 222 122
-1.276818e+00 1.223445e+00 -2.204549e+00 186 169 53
1.023839e+00 5.585474e+00 -1.836097e+01 194 181 65
6.522530e+00 1.049018e+01 -2.690763e+01 163 160 79
-4.912930e+00 1.093483e+01 -2.662349e+01 141 151 82
4.666475e+00 4.257354e+00 -1.395158e+01 181 165 54
-1.060210e-02 5.415047e-01 -4.106383e+00 183 192 65
-7.170437e-01 -7.257288e-01 -4.568248e+00 177 140 51
5.538481e+00 1.035395e+01 -2.699736e+01 153 144 48
5.626494e+00 8.693208e+00 -2.357000e+01 154 137 38
-2.835439e+00 1.094214e+01 -2.853122e+01 172 158 64
3.905248e+00 7.268706e+00 -2.094082e+01 179 163 53
6.571103e+00 5.257099e+00 -1.699403e+01 174 158 47
8.133599e+00 4.785447e+00 -1.622883e+01 178 166 62
-4.776490e+00 8.998613e+00 -2.691191e+01 207 189 79
-8.604550e-02 7.835083e-01 -4.113730e+00 198 206 68
-8.081031e-02 -3.139610e-01 -3.753692e+00 125 140 16
5.139766e+00 7.286852e+00 -2.168000e+01 182 165 57
-5.183874e+00 9.240662e+00 -2.686528e+01 186 170 59
1.304553e+01 7.155811e+00 -1.938724e+01 153 150 71
4.233592e-02 -7.008622e-01 -3.665711e+00 188 141 53
