ply
format ascii 1.0
element face 0
property list uchar int vertex_indices
element vertex 206
property float x
property float y
property float z
property uchar diffuse_red
property uchar diffuse_green
property uchar diffuse_blue
end_header
1.999020e-01 4.453919e-01 -3.529158e+00 177 187 62
1.711309e-01 3.304680e-01 -3.608743e+00 89 79 10
6.597986e-01 9.973698e-02 -4.180584e+00 111 116 22
-1.364413e-01 5.355685e-02 -4.200782e+00 134 128 16
4.630744e-01 9.131121e-01 -4.307459e+00 121 118 14
2.492341e-01 3.820869e-01 -3.566138e+00 140 144 34
7.114479e-01 1.808249e-01 -4.217090e+00 174 186 86
-1.588932e-01 8.429942e-02 -4.218369e+00 176 167 64
-2.831149e-01 3.519944e-02 -4.222323e+00 127 142 5
-3.815362e-01 4.695979e-03 -4.191321e+00 190 189 78
-3.815362e-01 4.695979e-03 -4.191321e+00 190 189 78
-3.577422e-01 -7.332885e-02 -4.137585e+00 148 170 24
-3.957238e-01 -7.849377e-02 -4.133185e+00 131 152 12
-3.260169e-01 -1.101179e-01 -4.054778e+00 142 167 17
1.209419e-01 -2.046100e-01 -3.780812e+00 93 112 0
8.317163e-02 -5.003921e-01 -3.750085e+00 167 116 35
6.372140e-01 -7.847180e-01 -4.152409e+00 137 110 31
-3.509265e-01 -5.802318e-01 -4.223390e+00 160 123 32
6.088615e-01 -8.059936e-01 -4.165164e+00 140 116 38
-4.315835e-01 -6.844883e-01 -4.308693e+00 196 165 75
-4.168398e-01 -7.260463e-01 -4.314563e+00 193 173 78
6.887815e-01 7.999897e-01 -4.399817e+00 209 217 113
6.898520e-01 7.704744e-01 -4.433703e+00 112 120 9
1.753890e-01 4.037882e-01 -3.497112e+00 131 140 21
-1.912887e-01 3.301295e-01 -4.327351e+00 142 154 30
-3.920778e-01 3.242613e-01 -4.521822e+00 200 216 92
-3.276334e-01 1.632717e-01 -4.330624e+00 114 120 3
-3.081975e-01 1.364680e-01 -4.294323e+00 118 117 15
5.174043e-01 -9.927909e-02 -3.959766e+00 109 131 5
5.926791e-01 -1.266374e-01 -3.972736e+00 106 133 4
-3.505501e-01 -4.961474e-02 -4.136952e+00 163 178 39
5.378454e-01 -2.243822e-01 -3.880940e+00 106 124 4
2.493650e-01 -2.040992e-01 -3.814801e+00 107 117 7
-2.655600e-01 -1.742209e-01 -4.017417e+00 152 170 32
5.005336e-02 -4.821145e-01 -3.723420e+00 172 122 37
4.226821e-01 -5.972026e-01 -3.957053e+00 123 87 10
-3.525574e-01 -6.098902e-01 -4.224794e+00 192 159 66
3.699630e-01 -8.214985e-01 -4.076158e+00 129 96 21
1.195150e-01 -9.276700e-01 -4.050674e+00 164 117 35
-3.386783e-02 9.841594e-01 -4.187732e+00 215 224 105
3.252888e-01 1.447869e-01 -3.801578e+00 114 87 12
-3.717467e-01 1.056001e-01 -4.366359e+00 145 157 32
-3.257019e-01 5.318770e-02 -4.253593e+00 146 157 26
5.356892e-01 -1.335871e-01 -3.921628e+00 124 149 21
4.289760e-01 -1.379569e-01 -3.884384e+00 103 126 2
3.589595e-01 -2.449908e-01 -3.852033e+00 103 115 11
9.130017e-02 -1.942282e-01 -3.786722e+00 100 115 1
2.304273e-01 -2.388256e-01 -3.819772e+00 92 118 0
1.035233e-01 -2.995791e-01 -3.767890e+00 115 135 8
-4.542985e-01 -3.263381e-01 -4.098884e+00 180 131 29
3.006033e-01 -6.481639e-01 -3.948467e+00 119 91 12
-4.230827e-01 -5.596595e-01 -4.306246e+00 144 106 17
3.847972e-01 -6.998592e-01 -4.037086e+00 107 90 8
-1.094634e-01 -6.440755e-01 -3.991591e+00 135 110 17
-3.666978e-01 -6.489734e-01 -4.288764e+00 145 119 25
-1.675488e-02 -6.680303e-01 -3.925252e+00 174 133 51
4.993515e-01 -8.563058e-01 -4.132191e+00 154 125 49
-2.409574e-01 -6.989840e-01 -4.185583e+00 141 121 26
4.331981e-01 -8.716350e-01 -4.146394e+00 156 121 47
3.357452e-01 -8.967755e-01 -4.118989e+00 159 121 45
-3.104503e-01 -8.229854e-01 -4.259843e+00 177 157 67
-2.484622e-01 -8.619358e-01 -4.265263e+00 179 155 67
7.572356e-02 -8.743566e-01 -3.998937e+00 168 112 35
-1.909060e-01 -8.826278e-01 -4.204084e+00 174 149 62
-8.160666e-02 -9.246273e-01 -4.124034e+00 174 144 58
2.675094e-01 4.997450e-01 -3.582405e+00 169 178 49
-1.208966e-01 5.845378e-01 -4.119823e+00 229 241 101
-1.553817e-01 3.908153e-01 -4.135277e+00 186 197 67
-8.403755e-02 3.560073e-01 -4.137408e+00 197 210 79
-1.228540e-01 3.477063e-01 -4.170437e+00 151 162 32
-3.994229e-01 3.789610e-01 -4.491960e+00 207 224 111
5.400740e-01 -5.129359e-02 -4.031674e+00 88 107 0
-3.407378e-01 1.502765e-02 -4.185227e+00 103 110 0
5.504758e-01 -1.890708e-01 -3.910544e+00 97 121 0
4.334768e-01 -1.799962e-01 -3.888782e+00 117 142 17
-1.769752e-01 -8.518514e-02 -3.972206e+00 158 174 32
2.792231e-01 -1.786518e-01 -3.832279e+00 85 88 1
-3.785950e-01 -1.009284e-01 -4.142842e+00 159 176 35
2.988032e-01 -2.594090e-01 -3.825205e+00 112 122 9
3.138724e-01 -3.035922e-01 -3.826559e+00 92 94 0
-3.961326e-01 -3.474265e-01 -4.044513e+00 178 133 32
-3.449549e-01 -3.680933e-01 -4.014061e+00 181 132 35
-2.885694e-01 -3.891054e-01 -3.969821e+00 177 127 30
-1.279810e-01 -4.489134e-01 -3.813264e+00 177 131 37
6.083000e-01 -6.954620e-01 -4.129115e+00 161 139 63
6.083000e-01 -6.954620e-01 -4.129115e+00 161 139 63
-2.452044e-01 -5.751975e-01 -4.108228e+00 174 134 46
-1.864932e-01 -5.757788e-01 -4.034547e+00 151 110 22
5.229965e-01 -7.728945e-01 -4.073480e+00 170 154 74
-2.668061e-01 -6.540057e-01 -4.199642e+00 192 161 70
4.539273e-01 -8.111486e-01 -4.138864e+00 94 72 3
-1.286230e-01 -6.819477e-01 -4.031345e+00 200 179 88
-4.182600e-02 -6.892940e-01 -3.951227e+00 134 95 12
-2.229911e-01 -7.319588e-01 -4.157129e+00 224 200 108
1.449603e-01 -7.919472e-01 -3.985862e+00 117 77 2
1.449603e-01 -7.919472e-01 -3.985862e+00 117 77 2
-2.072328e-01 -8.299754e-01 -4.213061e+00 193 159 72
1.784769e-01 -9.144351e-01 -4.068461e+00 165 118 43
-9.890652e-02 -8.692000e-01 -4.118654e+00 197 159 76
2.223490e-01 -9.439934e-01 -4.047092e+00 133 96 20
-1.360227e-01 -9.024608e-01 -4.156051e+00 172 144 57
1.693237e+00 6.497336e+00 -1.953605e+01 129 116 11
1.693237e+00 6.497336e+00 -1.953605e+01 129 116 11
3.877143e-01 9.731454e-01 -4.347092e+00 213 221 118
3.118493e-01 9.509821e-01 -4.385772e+00 104 115 2
2.285313e-01 4.395534e-01 -3.532911e+00 202 212 87
-3.695280e-01 3.459521e-01 -4.454880e+00 123 138 12
-1.602172e-01 1.852678e-01 -4.308699e+00 160 175 48
-1.602172e-01 1.852678e-01 -4.308699e+00 160 175 48
6.075870e-01 3.389744e-02 -4.078405e+00 115 131 21
3.219236e-01 -2.144972e-01 -3.838131e+00 89 87 0
4.923137e-01 -2.553816e-01 -3.884909e+00 99 112 0
3.910999e-01 -2.748613e-01 -3.858235e+00 77 92 0
-3.752039e-01 -1.494979e-01 -4.107487e+00 100 110 0
-1.558079e-01 -2.085361e-01 -3.881052e+00 152 162 35
-2.377573e-01 -2.182631e-01 -3.984012e+00 121 129 1
-1.360514e-01 -2.758607e-01 -3.899179e+00 125 126 14
6.765094e-01 -6.370445e-01 -4.144993e+00 150 114 38
5.128065e-01 -6.333568e-01 -4.018568e+00 105 72 0
-4.733306e-01 -5.756025e-01 -4.372358e+00 182 141 53
-4.733306e-01 -5.756025e-01 -4.372358e+00 182 141 53
-3.003661e-01 -6.157387e-01 -4.211335e+00 130 95 5
-4.114953e-01 -6.204799e-01 -4.341458e+00 209 183 88
-1.523308e-01 -8.330131e-01 -4.167879e+00 188 152 65
5.663184e-01 -9.834944e-01 -3.924509e+00 192 192 104
3.046109e-02 -9.159323e-01 -4.031420e+00 197 149 65
-4.559675e-02 8.456887e-01 -4.238728e+00 228 236 98
-1.064168e-01 5.267900e-01 -4.083014e+00 213 224 83
-1.985997e-01 5.230579e-01 -4.152699e+00 198 208 73
-2.331546e-01 3.848737e-01 -4.207931e+00 191 206 74
1.878990e-01 -2.043783e-01 -3.790028e+00 115 137 14
8.650136e-02 -2.612050e-01 -3.773625e+00 113 134 3
1.713955e-01 -3.177619e-01 -3.782210e+00 90 103 0
3.446182e-01 -7.534565e-01 -4.020695e+00 157 149 68
2.467223e-01 -7.426704e-01 -3.982693e+00 100 67 0
-3.777124e-01 -7.030252e-01 -4.323702e+00 223 204 109
6.766491e-01 -9.364543e-01 -4.210722e+00 166 161 83
-1.643135e-01 -7.455756e-01 -4.112842e+00 122 94 10
1.005228e-01 -9.690502e-01 -4.047949e+00 153 115 32
-1.198394e-01 -9.587517e-01 -4.070774e+00 210 196 107
-3.011878e-01 2.368605e-01 -4.371700e+00 218 230 91
-3.011878e-01 2.368605e-01 -4.371700e+00 218 230 91
-8.746613e-02 1.839624e-01 -4.208929e+00 85 98 0
-4.901315e-01 -6.374988e-01 -4.405247e+00 131 103 9
2.130870e-02 -8.291950e-01 -4.002185e+00 194 144 65
-1.838029e-01 2.785228e-01 -4.378728e+00 71 84 0
-2.700191e-01 1.161358e-01 -4.275952e+00 78 74 0
-5.560156e-02 -1.623007e-01 -3.742222e+00 205 197 33
1.240097e+00 -9.702071e-01 -4.141355e+00 207 216 123
-2.717403e-01 -6.890969e-02 -4.075915e+00 166 198 39
-7.124808e-03 -4.103921e-01 -3.747279e+00 199 166 69
3.772510e-01 -2.568034e-01 -3.931635e+00 93 107 5
-2.281101e-01 1.445025e-01 -4.184125e+00 81 77 5
9.051998e-02 -3.787368e-01 -3.740340e+00 148 132 31
5.372828e+00 7.919074e+00 -2.253009e+01 167 159 52
4.122093e+00 8.325814e+00 -2.364522e+01 170 158 48
6.285905e-01 -7.485811e-01 -4.160498e+00 162 139 59
-2.793826e-01 -7.077492e-01 -4.221742e+00 201 183 88
3.317430e-01 -4.712167e-01 -3.800160e+00 147 95 19
4.492019e-01 -6.632351e-01 -4.007929e+00 160 144 66
7.558360e-01 -8.236420e-01 -4.279317e+00 160 122 49
-1.430948e-01 -1.359089e-01 -3.840247e+00 82 85 0
1.525111e-01 4.379231e-01 -3.506909e+00 190 201 73
-4.367787e-01 -8.165817e-01 -4.378385e+00 213 196 104
7.013331e-02 -8.001450e-01 -3.955008e+00 161 112 33
3.589595e-01 -2.449908e-01 -3.852033e+00 103 115 11
3.118493e-01 9.509821e-01 -4.385772e+00 104 115 2
-2.289263e-01 2.772432e-01 -4.416230e+00 111 122 8
2.370058e-02 -1.229566e-01 -3.695909e+00 142 133 0
7.792370e-02 3.860458e-01 -3.495687e+00 165 173 44
7.707737e-01 5.195804e-01 -4.381479e+00 218 223 127
-5.114307e-01 -7.928913e-01 -4.480076e+00 209 190 92
-3.235143e-01 -7.229366e-01 -4.211305e+00 160 134 41
1.201874e+01 1.400152e+01 -4.504208e+01 175 158 50
2.545608e-01 -8.973131e-01 -4.054546e+00 158 119 42
1.634778e+00 -5.392086e-01 -4.929870e+00 202 207 115
1.479913e+00 -5.799359e-01 -4.728251e+00 205 215 119
-2.933430e-01 -3.308174e-02 -4.126432e+00 135 158 10
6.824589e+00 9.027549e+00 -2.496368e+01 190 183 78
7.656806e+00 9.463708e+00 -2.617335e+01 183 177 67
1.078917e-01 1.169777e-01 -3.921628e+00 161 154 27
1.622913e+00 6.529985e+00 -1.856962e+01 184 171 57
9.956429e+00 9.519777e+00 -2.789935e+01 175 162 58
3.311090e-01 5.143407e+00 -1.633551e+01 197 180 61
4.261355e-01 -1.211235e+00 -4.083145e+00 209 212 121
-7.826983e+00 1.635705e+01 -4.416669e+01 174 162 50
-4.296203e-01 3.454795e+00 -1.091789e+01 184 167 49
-3.433590e-01 -1.328985e-01 -4.087409e+00 145 161 26
-4.436676e-01 -4.852800e-01 -4.298787e+00 184 135 43
6.966865e-01 3.158808e-01 -4.320661e+00 211 217 108
-1.547775e-01 -6.230002e-01 -4.028475e+00 201 168 78
-4.263667e-04 9.371687e-01 -4.273746e+00 160 165 37
1.120898e+00 -1.015066e+00 -3.948478e+00 204 209 117
4.515217e-01 -9.377504e-01 -4.133760e+00 157 141 63
-2.592939e+00 3.079603e+00 -9.453160e+00 163 148 29
4.592695e-01 9.523824e-01 -4.363909e+00 125 130 30
-4.814514e+00 -4.765376e+00 1.531122e+01 181 163 51
8.813438e+00 8.575617e+00 -2.443485e+01 169 160 55
1.496453e-01 1.064749e+00 -4.170197e+00 215 221 121
1.628314e+00 -3.105983e+00 -8.498599e+00 213 215 131
9.361703e+00 9.059179e+00 -2.506814e+01 185 171 74
3.792621e-01 -3.288260e-01 -3.852772e+00 144 129 36
3.511447e-02 -2.666788e-03 -3.631314e-01 0 255 0
3.481715e-02 -2.867399e-03 -4.131301e-01 255 255 0
-8.876752e-01 -3.278965e-02 -3.097303e-01 255 0 0
-8.752149e-01 -3.079744e-02 -3.581118e-01 255 255 0
