ply
format ascii 1.0
element face 0
property list uchar int vertex_indices
element vertex 918
property float x
property float y
property float z
property uchar diffuse_red
property uchar diffuse_green
property uchar diffuse_blue
end_header
4.543146e-01 -6.542660e-01 -3.980723e+00 177 122 42
1.021697e+00 -7.843266e-01 -4.235770e+00 112 83 0
-2.496783e-01 -5.520899e-01 -3.958343e+00 204 151 57
1.675059e-01 -6.349167e-01 -3.666956e+00 181 131 46
-5.460575e-01 -6.077820e-01 -4.339570e+00 185 135 51
9.468431e-01 -1.080596e+00 -4.297032e+00 134 109 27
-1.235842e-01 -8.175468e-01 -3.949162e+00 215 188 101
3.123702e-02 -8.452558e-01 -3.856695e+00 182 129 49
-3.799122e-01 -8.569080e-01 -4.251832e+00 202 181 90
-6.562161e-01 -8.528188e-01 -4.504249e+00 195 151 63
2.477857e-01 -9.842885e-01 -3.959605e+00 164 117 39
6.262124e-01 -1.133516e+00 -4.203462e+00 137 116 34
-6.536179e-01 -9.277156e-01 -4.505558e+00 166 132 43
5.178562e-01 -1.147689e+00 -4.161288e+00 140 114 33
8.018508e-01 -1.253385e+00 -3.858005e+00 204 200 111
-6.205339e-01 -1.104729e+00 -4.325185e+00 208 207 114
1.979866e-01 7.963556e-01 -3.460705e+00 193 206 66
1.689248e-01 5.984528e-01 -3.395189e+00 176 183 58
2.389617e-01 4.862564e-01 -3.546117e+00 50 34 0
3.759922e+00 2.789447e-01 -6.815157e+00 211 215 121
4.748664e-01 3.095958e-01 -3.613589e+00 181 170 72
-3.590742e-01 9.423251e-02 -4.249772e+00 159 179 38
-1.533649e-01 2.505575e-02 -3.879605e+00 220 227 95
3.808984e+00 -6.820895e-01 -5.189746e+00 210 213 122
2.528562e-01 -1.956467e-01 -3.780374e+00 119 142 9
1.615262e-01 -5.821704e-01 -3.660887e+00 154 102 18
7.022599e-01 -7.748477e-01 -4.101882e+00 116 80 0
-4.726190e-01 -5.674659e-01 -4.180179e+00 181 131 45
9.178005e-01 -9.025940e-01 -4.239542e+00 113 82 3
1.045902e-01 -7.968543e-01 -3.849855e+00 164 116 34
-3.879721e-01 -8.306547e-01 -4.247343e+00 199 174 84
7.928068e-01 -1.232932e+00 -4.186954e+00 182 178 89
1.431774e+00 -1.331821e+00 -3.756120e+00 216 220 126
6.283094e-01 -1.263108e+00 -4.050882e+00 189 183 97
-2.202635e+00 -8.481736e-01 -4.764784e+00 229 229 139
-2.190358e-01 1.069731e+00 -4.329332e+00 230 245 118
-7.776095e-02 8.398934e-01 -4.130259e+00 202 211 69
-6.296778e-04 5.894277e-01 -3.449584e+00 210 220 89
-1.498363e-01 6.342748e-01 -4.168095e+00 164 175 38
-1.403764e-01 4.410412e-01 -4.290504e+00 194 211 79
9.960235e-01 2.025418e-01 -4.292852e+00 74 73 6
-5.186226e-01 3.222239e-01 -4.634658e+00 129 153 15
4.431827e+00 -4.314821e-01 -5.639102e+00 208 213 119
-1.255348e-01 1.492549e-01 -4.272186e+00 87 98 0
5.858973e-01 -5.557937e-02 -3.951985e+00 140 161 34
-5.090637e-01 -8.567271e-01 -4.386399e+00 217 207 112
2.129282e-01 2.539240e-01 -3.831396e+00 104 82 0
-2.668386e+00 7.916592e-01 -7.934442e+00 228 233 141
9.290982e-01 6.778409e-03 -4.159170e+00 109 106 11
1.250633e-01 -1.363425e-01 -3.769334e+00 88 97 1
-1.914908e-01 -1.020961e-01 -3.823277e+00 78 79 0
3.204220e+00 -7.579788e-01 -5.205451e+00 214 217 126
1.279718e+00 -4.089871e-01 -4.212144e+00 208 209 119
2.641493e+00 -9.964870e-01 -4.683923e+00 211 214 123
1.252803e+00 -7.672233e-01 -4.126496e+00 185 189 102
-2.212448e-01 -9.152648e-01 -4.154129e+00 124 98 13
-2.696508e+00 -6.621668e-01 -5.194847e+00 228 233 139
-2.775370e+00 -7.678878e-01 -5.113478e+00 237 243 147
-2.775370e+00 -7.678878e-01 -5.113478e+00 237 243 147
-1.813719e+00 -9.263060e-01 -4.828339e+00 228 233 141
8.134915e-01 -1.294599e+00 -3.750225e+00 217 218 125
-1.888938e+00 -9.618022e-01 -4.511221e+00 220 223 132
4.731309e-02 5.005573e-01 -3.704174e+00 114 107 0
-5.096602e-01 6.556598e-01 -4.509645e+00 215 229 117
-1.794742e+00 -1.780283e-02 -5.963580e+00 230 234 140
1.044092e+00 -4.753039e-01 -3.991792e+00 148 106 24
-7.628893e-01 -3.097000e-01 -4.076980e+00 171 125 27
-1.883187e-01 -4.047804e-01 -3.841132e+00 201 173 74
1.183189e+00 -7.261793e-01 -4.299475e+00 186 184 99
-1.974057e+00 -4.640123e-01 -5.499331e+00 228 231 140
1.485295e+00 -1.188066e+00 -4.289295e+00 194 198 111
1.213608e+00 -1.342828e+00 -3.797671e+00 216 217 124
8.301689e-01 -1.708442e-01 -3.856479e+00 125 136 16
4.251688e-01 8.743203e-01 -4.326490e+00 231 242 104
-2.350635e-02 2.585852e-01 -3.987530e+00 195 202 72
-1.417589e+00 -4.070708e-01 -5.794033e+00 220 225 131
3.948117e-01 3.486907e-01 -3.891897e+00 90 64 0
-1.395757e-02 1.228048e+00 -5.209864e+00 229 245 110
1.535642e+00 6.692374e-01 -3.978229e+00 206 216 119
1.535642e+00 6.692374e-01 -3.978229e+00 206 216 119
1.503966e+00 5.923735e+00 -1.859763e+01 182 164 49
2.340074e+00 5.236843e+00 -1.668502e+01 185 169 56
-2.172364e-01 2.035546e-01 -4.314956e+00 106 98 0
-4.145320e-01 -4.108086e-01 -3.972304e+00 198 152 56
6.196060e-01 5.537701e+00 -1.694027e+01 183 166 50
-1.343648e-01 6.972386e-01 -4.136789e+00 204 212 75
-3.918240e-02 3.781552e-01 -4.118446e+00 189 204 79
-3.520134e-01 2.563033e-01 -4.375246e+00 94 90 5
-5.322992e-01 -3.506774e-02 -4.173240e+00 136 148 14
3.834836e-01 -7.455332e-01 -3.948456e+00 160 117 33
-5.087747e-01 -6.711886e-01 -4.309791e+00 174 137 46
9.916572e-01 -1.112437e+00 -4.309688e+00 159 143 62
-3.745491e-02 -1.128743e+00 -4.098023e+00 193 143 54
4.395140e+00 5.399118e+00 -1.700485e+01 195 181 74
4.395140e+00 5.399118e+00 -1.700485e+01 195 181 74
3.563698e+00 4.646246e+00 -1.545227e+01 182 168 61
6.596281e-01 1.332920e+00 -4.454678e+00 219 225 129
8.653555e-01 2.414256e-01 -4.241034e+00 143 158 40
7.547359e-01 -2.906302e-01 -3.857584e+00 154 128 28
3.405757e-01 -9.712946e-01 -3.980893e+00 157 115 35
6.132017e-01 -1.229853e+00 -3.883062e+00 192 192 102
8.948201e-01 1.209748e+00 -4.591892e+00 217 223 123
1.420553e-02 -1.237603e+00 -4.006187e+00 206 186 96
1.638707e+00 -1.090055e+00 -4.368198e+00 206 215 124
2.859325e-01 -8.281444e-01 -3.960169e+00 156 115 33
2.402336e+00 6.241311e+00 -1.884548e+01 143 124 20
2.402336e+00 6.241311e+00 -1.884548e+01 143 124 20
-1.916050e+00 5.410636e+00 -1.657681e+01 198 180 70
1.991602e-01 7.957863e-01 -3.461792e+00 197 207 74
-2.526372e+00 9.239798e-01 -7.950209e+00 221 226 134
-6.239885e-01 -1.093754e+00 -4.320469e+00 205 205 109
-2.681473e+00 -1.059738e+00 -4.337250e+00 233 243 147
2.240471e+00 5.405887e+00 -1.700384e+01 202 185 70
-3.591160e-01 9.896960e-01 -4.492786e+00 214 224 119
1.521916e+00 -1.125448e+00 -4.318415e+00 187 195 109
2.057006e+00 -1.308698e+00 -3.477863e+00 213 216 127
5.149747e-01 -1.149752e+00 -3.980356e+00 177 165 79
4.695581e+00 1.778301e+00 -9.769101e+00 209 215 119
-4.840651e-02 5.775627e-01 -3.660920e+00 149 155 25
-1.977192e-02 -2.807690e-01 -3.710904e+00 99 118 0
3.144271e-01 7.285928e-01 -3.500701e+00 177 188 57
-1.682643e-01 6.859381e-01 -4.134235e+00 185 196 58
2.349136e-01 6.551056e-01 -3.381876e+00 176 187 60
7.561322e-01 2.852739e-01 -4.222618e+00 148 160 52
4.805910e-02 3.388190e-02 -3.740668e+00 139 121 11
7.597533e-02 -3.579905e-02 -3.689565e+00 146 128 0
1.129713e+00 -4.255974e-01 -3.963015e+00 175 158 80
1.973648e-01 -5.636011e-01 -3.690437e+00 163 110 34
-2.535573e-01 -9.635160e-01 -4.170061e+00 154 122 35
2.562709e+00 5.590076e+00 -1.769468e+01 200 184 66
6.518903e-01 1.088206e+00 -4.459871e+00 77 75 6
8.276365e-01 1.024589e+00 -4.508520e+00 133 137 14
8.878523e-01 1.017507e+00 -4.509325e+00 211 219 118
8.878523e-01 1.017507e+00 -4.509325e+00 211 219 118
3.246142e-01 6.236900e-01 -3.472597e+00 153 161 43
-1.543204e-01 2.470196e-01 -4.291887e+00 126 137 17
-2.201678e-01 1.770573e-01 -4.282296e+00 188 176 75
6.510308e-01 2.312016e-01 -3.956133e+00 118 105 7
8.597460e-01 1.958241e-01 -4.296319e+00 109 121 20
6.294195e-01 1.902591e-01 -3.963801e+00 120 105 12
9.484633e-01 4.458891e-02 -4.153745e+00 119 119 26
-6.537861e-01 -5.524832e-02 -4.250492e+00 187 181 65
-2.929594e-01 -2.665440e-02 -4.088887e+00 143 173 14
-8.590787e-02 -6.014928e-01 -3.750082e+00 187 137 50
-2.965584e-01 -7.970093e-01 -4.136959e+00 185 154 63
1.661196e-01 -1.107165e+00 -4.058276e+00 163 107 32
-5.659671e+00 3.443977e+00 -1.308326e+01 232 237 145
1.753411e-01 1.070788e+00 -4.202366e+00 199 209 86
5.901439e-01 1.053055e+00 -4.405439e+00 104 106 7
1.987956e-01 1.020654e+00 -4.245739e+00 179 188 61
2.879534e-01 8.586497e-01 -3.479332e+00 216 226 95
7.867154e-01 8.755234e-01 -4.483944e+00 106 109 9
2.552270e-01 6.757356e-01 -3.412442e+00 178 189 61
6.461037e-01 6.085133e-01 -4.094334e+00 141 116 23
2.268629e-01 5.833228e-01 -3.427239e+00 139 141 29
5.736471e-01 5.457037e-01 -3.857482e+00 142 100 22
9.167128e-01 5.238535e-01 -4.442127e+00 100 107 5
-1.991488e-01 2.532435e-01 -4.337637e+00 109 116 1
-3.331429e-02 2.621796e-01 -4.028547e+00 202 214 78
8.507272e-02 2.001482e-01 -3.850764e+00 164 161 26
1.172393e-01 1.505105e-01 -3.950182e+00 172 169 37
5.886697e-01 1.169166e-01 -3.997649e+00 108 100 18
-3.842645e-01 -1.076789e-01 -4.041619e+00 129 161 9
9.159265e-01 -6.857490e-02 -4.020939e+00 106 113 8
-7.692038e-01 -2.161260e-01 -4.252158e+00 199 185 80
9.768387e-02 -9.779902e-01 -3.993818e+00 162 109 29
6.709298e-01 -1.001844e+00 -4.149047e+00 141 114 40
1.082613e+00 -1.069549e+00 -4.218612e+00 166 167 87
1.551944e+00 -1.152744e+00 -4.240179e+00 196 209 121
1.951272e-02 -1.166789e+00 -3.960520e+00 183 146 57
4.064401e-01 7.898124e-01 -3.593351e+00 166 178 50
7.812957e-01 7.945408e-01 -4.523052e+00 92 92 2
-1.211176e-01 5.450885e-01 -4.148328e+00 198 209 81
7.240249e-01 4.068841e-01 -4.251937e+00 190 177 75
5.221505e-01 3.705603e-01 -3.829383e+00 117 85 12
6.511668e-01 3.183339e-01 -4.079376e+00 148 140 39
9.377326e-01 2.641321e-01 -4.270461e+00 185 196 100
6.207999e-01 2.117384e-01 -4.024783e+00 161 146 51
1.678253e-01 1.442706e-01 -4.018643e+00 139 129 9
9.803104e-02 7.858356e-02 -3.842350e+00 141 136 10
-6.720704e-01 -1.627051e-01 -4.222594e+00 199 169 66
9.444671e-01 -1.122084e-01 -4.061268e+00 124 132 28
9.742859e-01 -1.429487e-01 -4.226460e+00 124 132 28
8.602350e-01 -2.768706e-01 -3.928421e+00 149 125 36
-7.884585e-01 -8.000425e-01 -4.493065e+00 208 208 110
-3.534463e-01 -1.135595e+00 -4.365859e+00 201 189 95
9.142528e-01 -1.089132e+00 -4.205904e+00 155 141 66
1.205791e+00 -1.137231e+00 -4.088755e+00 186 196 109
-3.187336e+00 2.751951e+00 -1.157789e+01 216 226 127
5.623828e-01 1.181210e+00 -4.474829e+00 61 60 0
5.172999e-03 1.126730e+00 -4.240970e+00 199 212 71
6.776085e-01 1.029442e+00 -4.481626e+00 63 60 0
7.954499e-01 7.327112e-01 -4.284464e+00 118 120 10
-4.105967e-01 6.704372e-01 -4.397187e+00 200 210 88
4.055912e-01 6.423611e-01 -3.477256e+00 140 146 35
6.230863e-01 4.300958e-01 -4.005749e+00 128 95 10
5.753890e-01 3.866208e-01 -3.846891e+00 157 139 50
5.258973e-01 3.132250e-01 -3.820979e+00 144 127 43
5.258973e-01 3.132250e-01 -3.820979e+00 144 127 43
1.158621e+00 2.356587e-01 -4.856442e+00 206 214 127
5.472264e-01 2.556639e-01 -3.833693e+00 92 75 0
4.983647e-01 2.029233e-01 -3.843132e+00 123 106 18
1.101685e+00 1.336177e-01 -4.486568e+00 152 133 49
-1.028740e-01 1.194598e-01 -4.062755e+00 217 219 72
-1.720484e-01 1.177379e-02 -3.838845e+00 220 228 83
8.852722e-02 2.603258e-02 -3.835347e+00 84 68 0
-1.280761e-01 -9.866542e-02 -3.727600e+00 183 174 31
-1.615331e-01 -1.570548e-01 -3.766548e+00 97 105 0
-4.614091e-01 -4.126085e-01 -4.013693e+00 181 134 38
-1.239425e-01 -8.136259e-01 -3.938363e+00 209 182 95
1.222941e+00 -9.916814e-01 -4.308195e+00 182 186 104
-1.415343e+00 -1.123310e+00 -3.946745e+00 225 235 138
-1.342561e+00 -1.162887e+00 -3.812269e+00 226 232 134
7.632764e-01 -1.177360e+00 -3.996566e+00 174 174 88
-4.165021e+00 3.498155e+00 -1.335883e+01 220 226 130
6.196447e-01 1.302620e+00 -4.502411e+00 114 117 19
5.204047e-02 1.068000e+00 -4.181690e+00 233 245 111
-3.349408e+00 1.186844e+00 -8.505073e+00 227 233 135
1.275879e-01 1.038668e+00 -4.141763e+00 195 205 73
6.026168e-01 9.826214e-01 -4.376952e+00 124 127 13
-1.684397e-01 9.010935e-01 -4.174677e+00 214 226 89
-3.663040e+00 8.204358e-01 -7.947039e+00 232 236 142
5.819812e-01 6.112759e-01 -4.028559e+00 167 143 50
9.576392e-01 4.182807e-01 -4.758222e+00 212 220 119
1.217747e-01 3.115166e-01 -3.642899e+00 110 100 0
3.778181e-01 1.541106e-01 -3.873989e+00 58 42 0
2.162326e-01 1.350495e-01 -3.924298e+00 153 145 38
2.162326e-01 1.350495e-01 -3.924298e+00 153 145 38
-5.928477e-01 -9.498073e-02 -4.193214e+00 119 124 1
1.067075e+00 -9.364741e-02 -4.333171e+00 146 126 39
-1.773388e+00 -4.692614e-01 -5.429994e+00 219 225 127
8.492213e-01 -4.329810e-01 -3.748900e+00 139 91 17
1.872446e+00 -7.780378e-01 -5.032484e+00 196 205 114
1.696532e+00 -7.847797e-01 -4.842584e+00 196 206 119
-2.742666e+00 -1.107492e+00 -4.457151e+00 236 241 149
-2.029526e+00 -1.111269e+00 -4.405041e+00 222 228 132
1.348839e+00 -1.017401e+00 -4.539556e+00 183 191 108
7.113668e-01 -9.677903e-01 -4.143915e+00 179 152 80
-4.331139e-02 -1.177811e+00 -4.130868e+00 187 142 55
1.528024e+00 -1.232721e+00 -4.297607e+00 191 204 116
1.459002e-01 -1.275652e+00 -4.021516e+00 198 183 96
-3.464041e+00 3.237013e+00 -1.227852e+01 219 226 130
-7.576977e-02 8.395394e-01 -4.123494e+00 200 211 70
1.974363e-01 7.961799e-01 -3.473770e+00 184 195 65
-1.521634e-01 6.343763e-01 -4.093141e+00 164 174 43
-3.100639e-01 -1.219429e-01 -3.934894e+00 151 173 26
-2.680998e+00 -8.081937e-01 -4.744179e+00 228 231 140
-2.973323e+00 -9.537171e-01 -4.354358e+00 221 231 135
-2.663807e+00 -1.313508e+00 -3.921992e+00 229 235 139
-1.958972e-01 -9.317710e-02 -3.809085e+00 77 84 0
1.607681e-01 -1.421654e-01 -3.864361e+00 73 82 0
-2.587911e+00 -6.214266e-01 -4.879019e+00 224 228 134
1.048109e+00 -2.973608e-01 -3.880827e+00 167 123 50
-9.464238e-03 1.282728e+00 -4.342541e+00 148 157 32
2.536729e-01 1.194612e+00 -4.305298e+00 213 224 122
-5.288640e-01 5.150129e-02 -4.281076e+00 177 171 58
-3.790005e-01 -1.676629e-02 -3.994202e+00 168 197 41
-3.903043e-01 -3.351613e-02 -4.098839e+00 168 197 41
8.782658e-01 1.144104e-02 -4.079005e+00 123 122 33
8.782658e-01 1.144104e-02 -4.079005e+00 123 122 33
2.704589e-01 -3.702848e-02 -3.882757e+00 130 141 11
-1.955969e+00 -4.577897e-01 -5.449404e+00 224 230 132
3.414472e-03 -2.571288e-01 -3.787700e+00 95 102 0
1.629129e+00 -7.029430e-01 -5.148792e+00 171 183 98
1.039851e+00 -4.779862e-01 -3.970765e+00 139 100 23
-2.482660e+00 -1.114944e+00 -3.982893e+00 227 232 138
-2.748035e+00 -3.184538e-01 -5.647575e+00 226 230 135
-3.758199e+00 -1.005234e+00 -6.532616e+00 232 236 142
2.428473e-01 7.860909e-01 -3.474681e+00 201 211 80
8.582330e-01 7.099757e-01 -4.517075e+00 103 102 0
4.152769e-01 3.689510e-01 -3.784500e+00 86 58 7
7.978890e-01 2.443965e-01 -4.213692e+00 134 142 41
2.553918e+00 1.242310e+00 -3.521172e+00 206 206 111
8.359650e-01 1.016624e+00 -4.531837e+00 131 139 18
8.261815e-01 3.957230e-01 -4.419034e+00 139 140 40
8.989119e-01 2.630917e-01 -4.253041e+00 162 173 75
1.925085e-01 -6.616820e-02 -3.850473e+00 121 125 0
-2.528160e-02 -2.187469e-01 -3.730205e+00 118 127 4
-3.120661e-01 6.297747e-01 -4.284292e+00 192 203 77
4.394087e-01 2.140176e-01 -3.766243e+00 90 73 0
1.516312e-01 -2.741920e-01 -3.735648e+00 106 131 4
-1.693694e-01 -6.828996e-01 -3.894789e+00 166 128 45
-8.043722e-02 -7.758335e-01 -3.924005e+00 157 115 34
-1.368829e-01 1.308237e+00 -4.296922e+00 193 205 89
-5.819866e-01 -1.495500e-01 -4.181781e+00 186 168 66
-4.858356e-01 -1.002468e+00 -4.417713e+00 169 142 58
1.074777e+00 -6.855923e-01 -4.259501e+00 147 116 46
1.103956e+00 -1.133838e+00 -4.308919e+00 179 175 96
-3.261556e+00 8.016305e-01 -7.555263e+00 233 233 145
-3.572761e+00 8.022331e-01 -7.726183e+00 232 237 147
1.890532e+00 -5.428108e-01 -5.073153e+00 212 219 139
-2.822279e+00 -4.749012e-01 -5.365870e+00 227 230 143
-2.765515e+00 -9.357501e-01 -4.591887e+00 235 239 152
1.431104e+00 -1.295498e+00 -3.333263e+00 215 217 133
-3.299288e+00 8.119300e-01 -7.663032e+00 233 233 145
7.594012e-02 2.484244e-01 -3.752004e+00 193 193 68
-3.301891e+00 5.060842e-01 -7.279075e+00 231 232 144
-3.325843e+00 5.083395e-01 -7.366541e+00 231 232 144
-1.893121e+00 -9.803200e-01 -5.165254e+00 226 235 142
2.633674e+00 -5.032319e-01 -5.194355e+00 216 219 140
3.327225e-01 -4.345292e-01 -3.674087e+00 178 134 59
5.258004e-01 1.445077e+00 -4.460988e+00 206 219 127
7.780413e-01 1.410077e+00 -4.513136e+00 203 218 125
1.294763e+00 9.015221e-01 -2.380235e+00 212 222 118
1.160469e-01 -9.614023e-01 -3.893444e+00 154 107 29
-3.918704e-02 -1.660879e-01 -3.636350e+00 136 132 4
2.404644e-01 -2.798333e-01 -3.732310e+00 103 124 3
3.151943e+00 1.284068e+00 -8.635323e+00 215 218 129
3.832251e+00 8.413768e+00 -2.346820e+01 182 171 65
-9.378921e-01 1.312145e+00 -3.289820e+00 185 180 66
2.768954e+00 2.302670e+00 -7.048136e+00 179 166 62
-3.492909e-01 2.211461e-01 -4.391518e+00 87 81 14
3.729319e-01 1.436159e+00 -4.599576e+00 213 223 124
2.197036e+00 -5.756520e-01 -5.206111e+00 210 219 126
-1.220798e-01 7.691482e+00 -2.490320e+01 198 181 62
4.605346e+00 7.365350e+00 -2.122502e+01 164 156 47
5.009145e+00 4.698851e+00 -1.466496e+01 191 174 66
-1.497158e+00 1.395436e+00 -8.873660e+00 213 228 127
9.045407e-01 -1.059880e-01 -4.008560e+00 116 131 12
2.868079e-01 7.414237e-01 -3.460017e+00 182 192 61
8.557686e-01 1.166230e+00 -4.592887e+00 105 112 3
-2.847748e+00 9.903423e-01 -8.139001e+00 218 224 126
5.872122e-01 -1.068878e+00 -4.120816e+00 152 118 44
-3.522655e-01 5.047216e+00 -1.532213e+01 182 165 51
-5.020345e-03 3.379604e-01 -4.085596e+00 205 214 87
-5.656515e-01 2.879325e-01 -4.968649e+00 188 184 80
-7.713682e-02 1.451020e-01 -3.912508e+00 203 208 62
-6.579967e-01 -9.092540e-01 -4.570075e+00 197 154 66
-2.452757e-01 -9.995561e-01 -4.218411e+00 170 130 45
7.975836e+00 9.890236e+00 -2.643535e+01 157 142 45
-5.850075e+00 9.005124e+00 -2.716425e+01 208 194 72
-6.153328e-01 4.317131e+00 -1.457796e+01 221 225 125
-1.253087e-01 1.062017e+00 -4.228023e+00 231 243 105
-4.558359e-01 4.197092e-01 -4.538396e+00 205 220 91
-3.486326e-01 2.547917e-01 -4.379321e+00 92 89 7
-1.497299e-01 -7.266872e-01 -3.960003e+00 187 155 70
-2.484092e+00 1.013767e+01 -2.623373e+01 174 161 63
6.388743e-01 9.902817e-01 -2.229890e+00 179 165 66
1.239328e-01 6.397822e-01 -3.357484e+00 202 213 81
1.230817e+00 2.885260e-01 -4.501569e+00 213 224 128
-3.342659e-02 2.584416e-01 -4.068762e+00 199 211 79
6.511285e-01 -1.559348e-01 -3.891096e+00 118 148 14
-6.726734e-02 -7.147051e-01 -3.860738e+00 178 136 52
-3.007550e-01 -7.636398e-01 -4.157015e+00 162 125 40
-1.644551e+00 7.409980e+00 -2.115454e+01 197 181 70
-4.744418e-02 5.821668e-01 -4.110641e+00 183 193 59
-2.748758e-01 5.022321e-01 -4.401290e+00 149 161 32
1.291048e+00 -1.061928e+00 -4.529358e+00 185 189 103
1.132484e+00 -1.145620e+00 -4.360245e+00 173 176 89
1.013441e+00 -1.179717e+00 -4.243067e+00 184 180 95
7.906546e-01 -6.963595e-01 -4.082082e+00 129 87 5
7.680529e-01 -6.883427e-01 -4.030123e+00 129 87 5
1.572058e+00 -1.064003e+00 -4.333766e+00 206 213 120
-5.160653e-01 -1.035270e+00 -4.359040e+00 210 196 107
1.099717e+01 1.117470e+01 -2.944573e+01 179 167 75
1.305103e+00 -1.170249e+00 -3.992256e+00 195 198 109
8.860301e-02 2.616088e-01 -3.873244e+00 190 192 57
-3.688901e-01 1.038335e+00 -4.408533e+00 214 224 116
-6.190757e-01 -6.374430e-01 -4.430761e+00 148 104 17
-1.778794e-01 1.077154e+00 -4.389003e+00 229 245 110
5.778525e-01 1.296322e+00 -4.470646e+00 138 134 29
9.650971e-01 1.186490e+00 -4.687131e+00 216 224 124
-1.213555e-01 1.163381e+00 -4.391730e+00 229 237 102
-7.987991e-02 3.172341e-01 -4.276243e+00 153 172 54
-2.985220e-01 -1.329662e-02 -4.033157e+00 141 171 15
-6.298819e-01 -5.296366e-02 -4.229437e+00 143 154 15
8.155689e-01 1.146915e+00 -4.622627e+00 109 113 4
-3.901705e-02 3.789159e-01 -4.121579e+00 189 204 79
-1.097754e-01 -8.763410e-01 -3.978602e+00 175 142 55
2.444783e-01 1.032162e+00 -4.281592e+00 196 202 64
-3.765420e-01 8.203673e-01 -4.308594e+00 223 232 103
-3.671987e-02 7.334394e-01 -3.781303e+00 218 226 88
9.525418e-01 5.599919e-01 -4.443873e+00 224 226 125
-4.045165e-01 5.881400e-01 -4.453876e+00 191 200 73
-1.159676e-02 2.928710e-01 -4.029269e+00 210 220 90
-5.952439e-01 6.979825e-02 -4.340002e+00 161 167 33
-6.543134e-01 -1.142668e-01 -4.254409e+00 186 169 53
-7.208987e-02 -3.136944e-01 -3.731230e+00 136 143 17
-4.580691e-01 -8.972479e-01 -4.333119e+00 162 139 45
-4.949070e-01 -9.166147e-01 -4.370910e+00 177 147 56
-1.589732e-01 -1.031444e+00 -4.167348e+00 184 143 53
-3.792916e-01 -1.103878e+00 -4.419941e+00 199 186 90
5.791980e-01 1.322889e+00 -4.468060e+00 128 126 28
-7.253783e-02 7.234930e-01 -4.131231e+00 197 206 65
7.320222e-02 5.546817e-01 -3.447629e+00 162 165 49
1.641511e-01 4.989113e-01 -3.512594e+00 102 91 3
3.589808e-02 3.026695e-01 -3.998625e+00 181 187 57
-2.069173e-01 -5.232527e-02 -3.900154e+00 118 131 4
-3.729465e-01 -1.039277e-01 -4.057175e+00 134 163 9
-3.135551e-01 -1.497128e-01 -3.956517e+00 148 178 33
-5.326635e-01 -4.400475e-01 -4.090237e+00 208 157 60
-8.454070e-03 -9.556386e-01 -3.983948e+00 188 135 55
6.409789e+00 5.450228e+00 -1.787690e+01 169 156 52
1.215704e-01 7.714766e-01 -3.468765e+00 204 214 81
-3.227031e-02 1.808818e-01 -3.931169e+00 218 222 72
3.919471e+00 -6.056857e-01 -5.332371e+00 215 218 127
-1.340695e+00 -2.316434e-01 -6.006174e+00 220 230 131
-1.660759e+00 -1.895618e-01 -5.939366e+00 221 227 131
1.151278e+00 -1.160171e+00 -4.194563e+00 193 200 114
-8.387834e-01 -9.742513e-01 -4.520917e+00 208 214 114
1.228493e+00 -1.461584e+00 -3.165547e+00 218 221 130
-2.452195e-01 1.249456e+00 -4.326546e+00 217 224 121
-3.700148e-01 9.646716e-01 -8.096853e+00 210 222 122
-4.571537e-01 2.481083e-01 -4.447429e+00 112 111 7
2.589463e-02 1.777156e-01 -3.801270e+00 156 150 0
3.511776e+00 -6.816149e-01 -5.542052e+00 203 206 115
-1.964934e-01 6.984337e-02 -4.218030e+00 165 186 45
-5.200463e-01 1.950185e-02 -4.206465e+00 129 127 8
1.128849e+00 -4.223213e-01 -3.964694e+00 204 203 111
-7.612618e-01 -4.261206e-01 -4.371563e+00 184 150 43
1.073982e+00 -8.720413e-01 -4.270620e+00 189 177 95
-4.544108e-01 -8.143101e-01 -4.287785e+00 217 201 105
1.020423e+00 -1.218752e+00 -4.004300e+00 200 203 114
-2.454982e+00 1.131512e+00 -8.376957e+00 220 225 135
2.737798e-01 4.148808e-01 -3.564920e+00 116 96 1
1.792777e-02 -1.872023e-01 -3.661209e+00 101 110 0
-4.182017e-01 -1.541981e-01 -4.069909e+00 93 115 0
-2.162752e-01 -7.732619e-01 -4.028191e+00 195 166 77
-5.342345e-02 -8.435926e-01 -3.906098e+00 137 99 14
-5.518073e-01 -9.542550e-01 -4.366020e+00 174 140 51
-1.596336e-02 1.278277e+00 -4.367426e+00 169 173 49
2.472728e+00 -1.282518e+00 -4.164412e+00 210 215 125
2.063397e-01 9.076691e-01 -3.695901e+00 232 239 106
-5.325757e-01 4.792524e-02 -4.232645e+00 138 133 18
-2.414670e+00 1.309427e-01 -6.471595e+00 230 233 142
-1.720194e-01 -2.439667e-01 -3.678236e+00 130 142 18
3.917916e-01 1.131879e+00 -4.116931e+00 64 66 0
2.974716e-01 3.056109e-01 -3.630473e+00 69 39 2
1.214924e+00 2.230437e+00 -4.633395e+00 175 162 50
-2.470871e-01 1.369549e-01 -4.253639e+00 124 124 18
1.004770e+00 -1.197453e+00 -4.154838e+00 182 186 100
-1.635202e-01 1.816318e-01 -4.248218e+00 119 116 16
-5.948691e-01 7.496216e-02 -4.309644e+00 184 182 71
1.302832e+00 -9.860164e-02 -4.742076e+00 173 155 69
3.914663e-01 1.137622e+00 -4.469997e+00 75 78 0
8.873318e-01 6.934325e-01 -4.493486e+00 103 107 11
2.636801e-01 6.091935e-01 -3.439533e+00 146 150 39
1.006630e+00 -2.849496e-01 -4.036663e+00 159 123 45
6.462535e-02 -5.265713e-01 -3.687679e+00 178 133 47
1.055988e+00 -1.113995e+00 -4.357723e+00 155 139 63
9.758934e-01 -1.156189e+00 -4.265920e+00 162 156 78
-4.806119e-01 -6.456226e-01 -2.092703e+00 214 221 118
-5.507760e-01 -1.171436e+00 -4.074934e+00 214 218 121
1.384544e-01 -1.152517e+00 -4.058133e+00 176 119 40
-2.511274e+00 1.137308e+00 -8.583834e+00 213 223 124
1.646130e+00 -4.665733e-01 -5.414729e+00 186 195 112
1.756692e+00 -6.989556e-01 -5.019852e+00 195 208 120
-1.938429e+00 -1.027254e+00 -4.376047e+00 228 233 139
-2.757567e+00 1.252394e+00 -8.861273e+00 219 229 130
-3.302607e+00 6.389167e-01 -7.697659e+00 225 229 134
3.854005e+00 5.423695e+00 -1.707075e+01 193 181 73
-5.133255e-01 7.359962e-02 -4.237564e+00 195 195 82
-3.749539e-01 5.949133e-01 -4.418214e+00 167 177 52
-3.756935e-01 5.941346e-01 -4.414781e+00 167 177 52
-1.210331e-01 3.097063e-02 -3.799533e+00 162 162 8
-3.447231e-01 -1.100395e+00 -4.282576e+00 206 188 101
7.264788e+00 1.138512e+01 -2.850232e+01 141 146 73
1.992682e-01 3.458931e+00 -9.139830e+00 186 175 61
6.980195e+00 5.529723e+00 -1.820175e+01 169 156 54
-3.392734e-01 3.398564e-01 -4.425234e+00 176 192 68
-7.420340e-01 -7.352683e-02 -4.355798e+00 223 229 132
-2.107660e+00 1.916994e+00 -5.173815e+00 189 173 66
1.051985e+01 6.474505e+00 -1.987604e+01 155 138 46
5.915875e-01 -1.186496e+00 -4.153391e+00 177 161 83
-2.257076e+00 3.265607e+00 -1.278569e+01 213 225 127
-4.814985e-01 1.270838e-01 -4.273149e+00 129 138 9
-1.618521e-01 1.838716e-01 -4.240331e+00 118 113 9
9.220419e-01 2.893401e-01 -4.313789e+00 168 177 72
-2.724021e-01 -5.056500e-03 -4.106090e+00 137 166 12
-7.319332e-01 -1.492025e-01 -4.225687e+00 208 196 89
4.664441e-01 1.111836e+00 -4.446053e+00 90 90 0
5.871240e-01 9.442203e-01 -4.342775e+00 101 96 0
9.622650e-02 1.202977e+00 -4.449312e+00 205 211 92
7.143154e-01 1.174671e+00 -4.505958e+00 92 90 5
8.345184e-01 9.908073e-01 -4.586912e+00 131 133 13
6.718614e-01 9.429230e-01 -4.432500e+00 85 83 0
-2.921216e-01 7.886856e-01 -4.214470e+00 213 223 90
1.292351e-01 3.618354e-01 -3.566669e+00 123 110 1
-5.666367e-01 -7.448506e-02 -4.222465e+00 146 162 25
1.327190e+00 -3.323545e-02 -4.854791e+00 176 150 66
6.176398e-01 -2.003729e-01 -3.818297e+00 108 136 13
9.211427e-01 1.274518e+00 -4.653288e+00 211 217 121
1.992924e-01 1.116530e+00 -4.422406e+00 189 195 80
2.548100e-01 6.757313e-01 -3.414019e+00 177 186 61
7.412695e-01 4.578278e-01 -4.362876e+00 91 75 0
-5.304328e-01 1.813437e-01 -4.368336e+00 150 166 39
6.435770e-01 4.096258e-02 -4.029986e+00 90 103 9
-5.346687e-01 -3.937911e-01 -4.083890e+00 184 135 37
1.663726e+00 3.790669e-01 -7.056904e+00 216 221 131
4.410189e-01 -1.169240e-01 -3.858939e+00 92 88 1
-2.340829e+00 -8.168898e-01 -4.693997e+00 225 229 135
-4.151367e-01 -1.006026e+00 -4.366016e+00 177 160 68
4.115569e-01 -1.016148e+00 -4.064413e+00 138 102 31
3.169738e-01 -1.101071e+00 -4.048350e+00 156 112 37
-1.833884e+00 -1.356972e+00 -3.180941e+00 227 227 137
7.740362e-01 1.239918e+00 -4.559728e+00 214 219 120
-2.212248e-01 8.002626e-02 -4.177482e+00 167 183 40
-6.428822e-01 -5.828058e-01 -4.320008e+00 160 117 25
1.522438e+00 -6.064859e-01 -5.208632e+00 177 176 94
-9.706647e-01 -1.333330e+00 -3.399893e+00 216 222 126
-1.306646e+00 -1.461536e+00 -3.002126e+00 219 223 129
-2.489767e+00 8.008728e-01 -8.014026e+00 222 233 131
-9.030206e-01 -1.294161e+00 -3.750867e+00 211 218 122
-9.988168e-01 -1.330539e+00 -3.271186e+00 225 231 135
-1.673287e+00 -1.193940e+00 -3.930037e+00 227 233 137
-5.942199e-01 -1.139949e+00 -4.163580e+00 213 223 127
-1.942961e+00 -4.298399e-01 -5.492752e+00 220 230 131
-3.574491e+00 -1.530999e-02 -6.259350e+00 236 236 146
-3.574491e+00 -1.530999e-02 -6.259350e+00 236 236 146
-7.702009e-01 -5.550773e-01 -4.293360e+00 225 232 130
-3.161065e+00 7.928580e-02 -6.472482e+00 230 234 140
-8.208224e-02 -1.071166e+00 -4.110321e+00 188 142 58
7.530389e+00 6.481744e+00 -1.857012e+01 167 148 45
6.127843e+00 7.316257e+00 -2.175452e+01 180 168 56
-3.640544e+00 7.230497e-01 -7.691352e+00 227 231 137
5.070508e-01 1.332838e+00 -4.504220e+00 211 222 114
-2.675287e+00 -6.625894e-01 -5.065201e+00 228 231 140
-5.112606e-01 4.282158e+00 -1.437225e+01 231 227 133
1.258794e-01 5.819232e-01 -3.426306e+00 174 178 58
-5.003332e-01 1.071345e-01 -4.260963e+00 124 128 14
-5.618782e-01 -3.534650e-01 -4.081269e+00 213 163 74
-6.866815e-01 -5.935641e-01 -4.470945e+00 200 146 66
5.278817e-02 6.341066e-01 -3.431770e+00 210 223 92
1.892616e-01 5.142563e-01 -3.508204e+00 108 97 11
-5.582038e-01 1.828087e-01 -4.476682e+00 140 162 28
-4.230318e-01 -8.663431e-01 -4.283348e+00 172 145 58
-5.636581e-01 2.575032e-01 -5.296046e+00 189 179 88
-6.880579e-02 5.286288e-01 -4.160859e+00 187 201 78
-1.308837e-01 3.242613e-01 -4.397129e+00 91 107 0
-6.157721e-01 -3.609044e-01 -5.792183e+00 215 215 127
-5.233733e-01 -7.106189e-01 -4.333074e+00 225 187 106
-6.123850e-01 -7.785378e-01 -4.459037e+00 137 99 14
7.901514e-01 -3.885857e-02 -4.012886e+00 130 147 33
9.477531e-01 -2.085921e-01 -4.009404e+00 119 125 28
6.360170e+00 2.604259e+00 -1.171078e+01 200 214 117
-8.297036e-02 -1.364233e-01 -3.671799e+00 214 203 54
-7.710428e-01 2.822103e-01 -7.031677e+00 218 228 139
-2.769127e-01 2.863842e-01 -4.298053e+00 149 161 45
4.449983e+00 7.565152e+00 -2.171884e+01 160 149 41
5.911449e+00 7.120297e+00 -2.122670e+01 179 167 59
7.852911e+00 4.797121e+00 -1.617771e+01 181 167 63
8.520310e+00 6.620997e+00 -2.024884e+01 141 123 23
-1.258789e+00 1.234634e+01 -3.134079e+01 149 151 69
-5.154813e+00 1.078497e+01 -2.651404e+01 47 52 1
1.415224e+01 4.477055e+00 -1.522851e+01 226 222 122
-1.189242e+00 1.120825e+00 -2.309646e+00 186 169 53
1.042044e+00 5.547713e+00 -1.831381e+01 194 181 65
6.792459e+00 1.089362e+01 -2.785818e+01 163 160 79
-4.988162e+00 1.120993e+01 -2.726604e+01 141 151 82
4.571572e+00 4.167417e+00 -1.376711e+01 181 165 54
-7.115968e-03 4.988591e-01 -4.096011e+00 183 192 65
-6.689645e-01 -6.872900e-01 -4.519165e+00 177 140 51
5.786125e+00 1.076327e+01 -2.798891e+01 153 144 48
5.804263e+00 8.930845e+00 -2.419508e+01 154 137 38
-2.817766e+00 1.077839e+01 -2.799212e+01 172 158 64
4.047576e+00 7.448611e+00 -2.150195e+01 179 163 53
6.550339e+00 5.237974e+00 -1.697722e+01 174 158 47
7.712743e+00 4.597785e+00 -1.553608e+01 178 166 62
-4.850404e+00 9.241175e+00 -2.760393e+01 207 189 79
-7.974431e-02 7.234078e-01 -4.098128e+00 198 206 68
-7.438349e-02 -3.029554e-01 -3.760294e+00 125 140 16
5.248925e+00 7.411915e+00 -2.205995e+01 182 165 57
-5.262978e+00 9.480259e+00 -2.752966e+01 186 170 59
1.335884e+01 7.330218e+00 -1.985325e+01 153 150 71
4.034177e-02 -6.637800e-01 -3.676850e+00 188 141 53
2.980946e-01 -8.376357e-01 -3.983443e+00 157 116 37
5.343141e+00 8.079254e+00 -2.266815e+01 202 185 81
-5.016135e+00 1.099342e+01 -2.909015e+01 193 177 77
-5.275775e+00 1.022124e+01 -2.791381e+01 159 144 36
-5.239670e+00 9.067524e+00 -2.545538e+01 197 185 65
7.492676e-01 -6.002796e-01 -3.999704e+00 167 118 39
5.648085e-01 -6.536143e-01 -4.021368e+00 165 118 36
-4.846563e+00 7.665474e+00 -2.565854e+01 197 179 68
-2.649237e+00 3.515174e-02 -6.147977e+00 231 235 141
1.670563e+00 6.627271e+00 -1.987465e+01 123 112 8
-1.582325e-01 -2.767972e-01 -3.835404e+00 130 141 19
1.863684e-01 6.711274e-01 -3.373744e+00 200 209 79
1.011986e+00 -5.182573e-01 -3.992949e+00 167 122 41
-2.166012e-02 6.614800e-01 -3.495768e+00 216 224 88
-2.709561e-01 -2.027657e-01 -3.900093e+00 119 141 7
2.450222e-01 -9.908696e-01 -3.973039e+00 164 117 37
1.380429e+01 3.981379e+00 -1.451764e+01 210 220 124
1.257515e-01 5.434528e-01 -3.437436e+00 108 107 0
-4.697496e-01 5.016901e+00 -1.558092e+01 205 189 68
6.067718e+00 4.080217e+00 -1.594112e+01 208 214 118
1.843800e+01 1.409432e+01 -5.586304e+01 180 167 64
-5.714892e+00 5.290998e+00 -1.668711e+01 185 170 51
1.978224e+00 -2.137893e-01 -5.862732e+00 210 220 131
-2.860051e-01 5.098567e+00 -1.631134e+01 186 174 56
1.642832e+00 5.561975e+00 -1.844410e+01 186 174 64
7.481866e-02 -1.189371e+00 -4.037396e+00 182 136 56
3.563073e+00 7.476547e+00 -2.136921e+01 174 162 54
-5.215615e+00 4.297974e+00 -1.102902e+01 170 155 36
-1.097626e+00 1.804428e+00 -5.312336e+00 219 225 123
-4.073371e-01 5.881574e-01 -4.439085e+00 190 200 75
8.234055e+00 1.087316e+01 -2.850841e+01 156 144 52
1.047999e+01 7.774530e+00 -2.701286e+01 174 161 59
6.732304e-02 -6.791046e-01 -3.655214e+00 163 116 36
1.300722e+00 6.619509e+00 -1.883507e+01 185 173 60
-1.463853e+00 -7.098924e-01 -5.068788e+00 224 235 143
2.592634e-01 -9.979845e-01 -4.001990e+00 151 109 30
2.005607e-01 5.781966e+00 -1.828496e+01 205 185 75
2.157464e-01 6.221513e-01 -3.363460e+00 160 170 49
-5.348722e-02 6.081696e-01 -3.558205e+00 188 196 71
-2.346930e-01 4.137260e-01 -4.466476e+00 92 108 9
-5.127992e-01 4.271176e-01 -4.535674e+00 168 187 62
-2.230036e-01 2.061050e-01 -4.262483e+00 113 111 6
-1.707630e-01 1.781259e-01 -4.224379e+00 111 120 13
-4.337093e-01 2.355506e-01 -4.418109e+00 120 122 15
-1.752909e-01 1.161662e-01 -4.264309e+00 113 123 10
3.910933e-01 -8.549897e-02 -3.819946e+00 112 117 17
3.993718e-01 -1.462048e-01 -3.776508e+00 148 150 50
-4.833119e-01 -8.812416e-01 -4.355856e+00 226 199 110
1.368810e+01 4.154390e+00 -1.399718e+01 209 207 121
1.607233e+01 3.575937e+00 -1.315409e+01 202 199 127
1.303919e+01 3.748351e+00 -1.351262e+01 216 215 125
5.050728e+00 4.973527e+00 -1.561804e+01 189 176 71
6.083101e-01 1.370353e+00 -4.468579e+00 211 219 126
-1.653916e+00 8.331089e-01 -1.708398e+00 225 225 135
-1.331077e-01 1.357160e+00 -4.286020e+00 217 228 124
6.530900e-01 1.267973e+00 -4.476824e+00 127 132 37
4.195119e-02 5.140910e-01 -3.542264e+00 133 128 10
-4.552666e-01 6.198650e-01 -4.701020e+00 221 236 130
-5.198754e-01 2.715516e-01 -4.457890e+00 144 171 42
5.715971e-01 -1.120161e-01 -3.871149e+00 124 144 25
-6.666996e-01 2.045581e-01 -5.132632e+00 226 220 132
-5.164173e-01 7.249670e-02 -4.224929e+00 190 190 80
8.989338e-01 -2.711777e-01 -3.975644e+00 153 138 45
-6.257889e-01 -8.342968e-03 -4.308106e+00 156 166 40
-4.541958e-01 -1.040408e-01 -4.117418e+00 144 171 32
4.014436e-01 -7.808610e-01 -3.955413e+00 143 103 24
-2.060839e-01 -6.734158e-01 -3.962835e+00 181 134 54
-1.566993e-01 -6.883532e-01 -3.924441e+00 176 134 50
-7.005194e-01 -6.480309e-01 -4.626795e+00 229 194 107
-5.768630e-02 -7.844880e-01 -3.975431e+00 173 125 48
-2.156082e-01 -8.593208e-01 -4.135496e+00 180 142 61
-6.355498e-01 -8.218292e-01 -4.520208e+00 187 143 60
-4.121791e-01 -8.678484e-01 -4.310430e+00 172 145 58
-6.963987e-02 -1.072126e+00 -4.145687e+00 205 150 68
4.513972e-01 -1.273335e+00 -4.180877e+00 198 179 100
1.189920e+01 7.030731e+00 -2.093937e+01 169 155 66
1.573325e+01 1.010154e+01 -3.085222e+01 170 155 62
1.532361e+01 3.762756e+00 -1.307902e+01 229 226 149
6.069388e+00 5.214892e+00 -1.693984e+01 172 161 56
3.877873e-02 1.273980e+00 -4.353955e+00 214 227 121
-4.100082e-01 7.323638e-01 -4.365126e+00 218 232 109
-9.024953e-02 4.121748e-01 -4.202324e+00 201 217 94
1.566714e+00 -3.848895e-01 -1.169846e+00 205 211 121
7.968858e-01 -5.139626e-02 -3.978517e+00 126 143 32
-5.179649e-01 2.465107e-01 -5.008965e+00 189 173 71
3.113167e-01 -2.408040e-01 -3.789207e+00 110 126 12
-6.727304e-01 -5.808359e-01 -4.397220e+00 198 141 62
-4.090418e-01 -1.034373e+00 -4.357226e+00 188 148 63
-5.877776e-01 -1.006261e+00 -4.482902e+00 226 199 114
-3.298031e-01 -1.068319e+00 -4.335685e+00 183 145 58
-4.140560e-01 6.516961e-01 -4.334537e+00 188 202 79
-1.506512e-01 5.713780e-02 -4.055107e+00 92 112 0
7.287177e-01 -1.759729e-01 -3.909563e+00 113 133 13
8.306146e-01 -1.893472e-01 -3.926754e+00 132 141 33
-5.602040e-01 4.622767e-02 -4.240086e+00 126 130 10
6.565860e-01 -7.720711e-01 -3.995407e+00 120 86 12
-6.008639e-02 -6.340791e-01 -3.707519e+00 201 146 61
-1.153377e-01 -8.195828e-01 -3.967411e+00 231 193 112
-7.700813e-01 -7.858417e-01 -4.934638e+00 212 205 115
-3.594884e-01 -1.005740e+00 -4.339391e+00 216 171 90
-1.331202e-01 -1.083105e+00 -4.152165e+00 220 168 84
1.296999e+01 2.579501e+00 -1.077594e+01 203 201 116
1.069637e+01 3.278768e+00 -1.349175e+01 206 211 117
-3.455798e-01 7.243217e-01 -4.264644e+00 220 231 109
-3.477059e-01 7.248224e-01 -4.266317e+00 220 231 109
7.296314e-02 3.671556e-01 -3.599947e+00 151 142 15
-4.982223e-01 4.997657e-01 -4.556037e+00 113 131 11
-5.123385e-01 1.756392e-01 -4.419613e+00 151 171 41
-4.100505e-01 -7.470805e-01 -4.247775e+00 125 78 2
-6.974990e-01 -7.559391e-01 -4.771579e+00 211 190 99
1.577994e+01 3.391820e+00 -1.297883e+01 208 205 128
7.697703e-01 -5.121636e-02 -4.004382e+00 130 147 32
-6.508936e-01 -7.722560e-01 -4.485443e+00 144 102 18
9.716403e+00 9.434584e-01 -7.634326e+00 206 209 118
8.553298e-01 -2.126532e-01 -3.951952e+00 127 132 30
1.384220e+01 4.059382e+00 -1.428504e+01 219 218 128
1.065683e+01 4.082280e+00 -1.226572e+01 142 140 57
2.099091e+00 -1.275022e+00 -4.103343e+00 206 215 126
5.345225e-01 -3.261050e-01 -4.732281e+00 130 147 19
-5.891516e-01 -7.316544e-01 -4.419281e+00 170 135 48
-7.146106e-02 3.167642e-01 -4.296162e+00 155 176 59
-3.910660e-01 8.576969e-01 -4.419931e+00 214 224 99
1.632317e-01 4.742712e-01 -3.528560e+00 105 93 7
-3.541656e-02 3.812653e-01 -4.125737e+00 182 197 72
-5.159118e-01 4.492455e-01 -4.576715e+00 166 193 50
-4.837360e-01 3.824214e-01 -4.525581e+00 152 174 37
-5.107645e-01 2.789685e-01 -4.491652e+00 145 167 30
-2.546439e-01 1.157900e+00 -4.286913e+00 214 223 106
-3.336324e-02 1.809281e-01 -3.935389e+00 215 220 83
3.894744e-01 6.526447e-01 -3.477091e+00 151 161 38
-1.739358e-01 4.334230e-02 -4.144877e+00 153 189 40
-8.172333e-02 2.601506e-01 -4.313778e+00 67 87 0
1.578686e-02 -1.933368e-01 -3.668060e+00 104 112 3
6.735562e+00 4.555309e-01 -7.566032e+00 206 210 113
-4.813135e-01 5.223144e-01 -4.626388e+00 109 131 0
-5.991247e-01 4.881461e-01 -4.649985e+00 218 224 123
1.144937e+01 2.685313e+00 -1.196346e+01 205 207 108
1.670923e+00 -1.460234e+00 -3.262560e+00 215 221 125
-1.022401e+00 -6.279483e-01 -4.710818e+00 226 231 139
3.857342e+00 6.167025e+00 -1.950195e+01 192 181 73
3.857342e+00 6.167025e+00 -1.950195e+01 192 181 73
1.161875e-01 6.020554e-01 -3.391885e+00 193 198 72
3.468208e-02 5.141622e-01 -3.619473e+00 130 120 8
-3.532743e-01 6.656735e-01 -4.249223e+00 210 219 94
-2.697474e-01 -2.418754e-01 -3.910125e+00 146 156 34
-2.976330e-01 -1.818414e-01 -3.934356e+00 130 151 20
3.569076e+00 8.380472e+00 -2.355224e+01 188 179 76
1.438375e+01 3.796140e+00 -1.332441e+01 181 179 94
1.460082e+01 2.779888e+00 -1.185195e+01 203 203 117
-1.574092e-01 8.480170e-01 -4.175900e+00 238 249 118
-5.613341e-01 -4.049378e-01 -4.205945e+00 220 154 67
-3.878748e-01 8.392819e-01 -4.425383e+00 214 222 103
-4.113774e-01 -7.473419e-01 -4.246445e+00 126 78 0
-1.462917e+00 -7.086032e-01 -5.071912e+00 234 234 146
1.259016e+01 1.180563e+01 -3.975130e+01 174 163 48
9.768502e-02 3.169792e-01 -3.921971e+00 174 177 47
-7.116385e-01 -2.780035e-01 -4.181236e+00 195 149 53
-7.051769e-01 -3.038512e-01 -4.192988e+00 189 141 46
-1.545501e+00 -1.804202e+00 -5.584013e+00 215 219 135
3.458964e+00 5.067322e+00 -1.227112e+01 157 154 78
7.574773e+00 4.742949e+00 -1.540507e+01 170 155 52
1.359870e+01 1.038212e+01 -3.520757e+01 177 161 50
7.402676e+00 6.583376e+00 -2.250481e+01 178 162 52
-8.417298e-02 -3.963461e-01 -3.785748e+00 183 159 58
7.627836e+00 1.050292e+01 -2.684133e+01 160 157 74
8.800914e+00 7.920972e+00 -2.639086e+01 172 160 48
-1.608261e-01 -1.010736e+00 -4.102833e+00 186 141 58
2.257152e+00 5.284671e+00 -1.631575e+01 181 164 51
-6.439285e-01 -8.078074e-01 -4.450786e+00 166 131 37
1.599782e+01 5.620807e+00 -1.963400e+01 173 159 62
9.559421e-01 3.687446e+00 -1.247305e+01 222 226 126
8.675743e+00 5.022227e+00 -1.593550e+01 163 155 54
7.885776e+00 4.784510e+00 -1.565407e+01 166 153 53
4.216446e+00 4.803692e+00 -1.459487e+01 194 180 75
7.778958e+00 4.269816e+00 -1.424699e+01 176 166 65
8.128188e+00 4.219598e+00 -1.401996e+01 173 164 63
1.208743e+01 3.539556e+00 -1.342979e+01 213 217 122
-2.336252e-01 1.226300e+00 -4.789170e+00 211 222 118
7.218377e-01 -1.278973e+00 -4.174965e+00 186 178 97
1.547641e+01 7.053376e+00 -2.480217e+01 180 162 68
7.832121e+00 7.151684e+00 -1.994942e+01 184 169 76
6.688499e+00 6.656240e+00 -1.778958e+01 164 150 53
-1.419088e+00 9.739377e-01 -7.645908e-01 157 170 98
4.326717e+00 8.434100e+00 -2.279537e+01 162 150 50
-1.427060e-01 -6.514506e-01 -3.913216e+00 195 149 64
3.500860e+00 3.005905e+00 -9.398360e+00 172 158 59
-1.513895e-01 -1.190564e+00 -4.196390e+00 224 201 116
8.539961e+00 1.471534e+00 -6.775360e+00 204 203 119
-1.440585e-01 2.569596e-02 -3.890141e+00 226 232 103
1.473746e+01 2.433873e+00 -1.198652e+01 217 217 131
-1.573293e+00 -7.614508e-01 -4.920564e+00 227 230 141
-2.241525e-01 2.330624e-01 -4.313719e+00 119 121 15
-2.067172e-01 2.048487e-01 -4.304176e+00 101 94 0
-2.042248e-01 -8.774954e-01 -4.161827e+00 158 126 43
-5.265039e-01 -1.121441e+00 -4.194629e+00 209 210 116
5.624920e-01 1.255696e+00 -4.446521e+00 117 111 2
-7.600044e-02 6.794435e-01 -3.934694e+00 218 226 88
6.846432e-01 -5.691567e-02 -3.982533e+00 115 141 6
-5.460588e-01 1.210313e-01 -4.352474e+00 138 153 13
-2.140290e-01 -7.493798e-02 -3.841746e+00 109 116 5
-8.394051e-02 -3.020726e-01 -3.744520e+00 125 137 14
-2.760145e-01 -6.286132e-01 -3.988152e+00 182 137 52
-4.946266e-03 -1.100347e+00 -4.044484e+00 195 140 58
-3.077572e-01 6.297031e-01 -4.271221e+00 186 196 73
-1.744127e-02 5.009957e-01 -4.080314e+00 175 184 59
-2.870751e-02 2.589805e-01 -4.069906e+00 194 205 79
-4.243191e-01 2.477763e-01 -4.362603e+00 119 117 12
-4.972041e-01 1.053506e-01 -4.272746e+00 129 123 12
1.028185e+00 -6.837842e-01 -4.194660e+00 161 129 46
9.761367e-01 -9.600975e-01 -4.260874e+00 157 130 52
-3.353548e-01 -6.289097e-01 -4.118491e+00 176 129 47
-2.079684e-01 -6.800600e-01 -3.963241e+00 164 126 44
8.500564e-01 -1.202319e+00 -4.156503e+00 175 177 90
-3.250750e-01 -7.417481e-01 -4.123848e+00 164 121 40
-2.717550e-01 -7.933419e-01 -4.139506e+00 158 122 41
-6.473994e-01 -7.272630e-01 -4.475992e+00 172 135 49
7.279112e-01 1.244070e+00 -4.510047e+00 217 223 123
-2.688315e-01 1.005148e+00 -4.326027e+00 224 235 105
-7.484241e-02 7.303424e-01 -4.123815e+00 200 209 64
-7.626192e-02 4.877685e-01 -4.164148e+00 179 190 62
-8.879031e-02 4.089731e-01 -4.211101e+00 193 207 84
-6.895792e-01 -6.494285e-01 -4.673938e+00 227 197 106
-1.508795e-01 -7.820490e-01 -3.993329e+00 133 106 18
-7.152092e-01 -7.688039e-01 -4.613129e+00 193 161 68
1.344774e+01 2.180286e+00 -1.031740e+01 209 211 112
-1.283999e-01 5.427100e-01 -4.183368e+00 193 204 74
-1.230839e-01 7.333095e-02 -4.129746e+00 82 105 0
3.373497e+00 -1.189771e+00 -3.972360e+00 200 206 112
-4.594200e-01 8.713602e-02 -4.241218e+00 115 115 0
-5.521981e-01 5.447933e-02 -4.290739e+00 121 122 2
-2.195459e-01 -4.312261e-02 -4.035131e+00 157 190 37
2.910613e+00 -1.201137e+00 -3.902163e+00 202 207 113
1.491924e-02 -1.137137e+00 -4.010428e+00 204 151 67
-5.910113e-01 -1.018359e+00 -4.497756e+00 210 194 106
6.307042e-01 1.310871e+00 -4.530689e+00 135 133 28
4.573341e-01 1.156977e+00 -4.458186e+00 111 114 0
1.930303e-01 5.949079e-01 -3.423612e+00 181 187 64
2.328725e+00 -1.110249e+00 -4.150764e+00 194 204 108
1.323160e+00 -1.134508e+00 -4.207208e+00 189 202 112
7.839213e-01 -1.249315e+00 -3.979436e+00 193 198 108
9.273426e-02 -1.227066e+00 -4.056600e+00 173 134 49
8.348913e+00 2.456541e+00 -1.049836e+01 207 213 115
-8.023523e-03 1.743665e+00 -9.320426e+00 224 229 139
-3.878722e-01 1.534710e+00 -8.735506e+00 226 230 143
4.366661e+00 -3.870253e-01 -5.597966e+00 204 208 113
-3.286585e-01 8.087412e-01 -4.240730e+00 208 218 85
2.676367e+00 -1.015181e+00 -4.368230e+00 212 218 118
1.673488e+00 -1.240532e+00 -4.051891e+00 206 214 119
-5.282250e-02 9.632251e-01 -4.208191e+00 236 246 111
-4.638246e-03 5.333138e-01 -3.669944e+00 108 105 0
1.559038e-01 7.495042e-01 -3.661004e+00 215 223 86
1.607786e+01 3.543445e+00 -1.299627e+01 137 135 59
-4.246958e-01 -4.110751e-01 -3.957557e+00 214 161 67
-3.417718e-01 -7.418699e-01 -4.167170e+00 184 133 52
-4.619445e-02 -1.154155e+00 -4.091571e+00 215 157 75
1.452936e+01 3.697779e+00 -1.351960e+01 210 208 121
-3.056426e-01 -1.120103e+00 -4.164561e+00 225 192 107
1.570904e+00 4.761550e-01 -1.919242e+00 140 140 70
1.541976e+01 5.628343e+00 -1.795200e+01 129 117 18
1.435788e+01 4.505070e+00 -1.522134e+01 214 215 123
-3.979209e-01 5.516454e-01 -4.497358e+00 183 194 64
-5.507157e-01 2.309989e-01 -4.592444e+00 131 149 11
-3.918556e-01 -6.978068e-02 -4.034314e+00 152 181 29
-6.317628e-01 -4.905792e-02 -4.241079e+00 148 162 22
-6.495599e-01 -5.245879e-01 -4.308546e+00 181 135 42
1.002985e+01 8.095771e+00 -2.224829e+01 163 151 53
5.684395e-01 1.255327e+00 -4.494981e+00 109 114 0
7.943984e-02 1.005808e+00 -4.192182e+00 223 231 86
-3.523711e-02 6.139007e-01 -3.588251e+00 184 191 57
-4.720491e-02 5.116802e-01 -4.113710e+00 193 204 73
-4.720491e-02 5.116802e-01 -4.113710e+00 193 204 73
2.788919e-01 1.954680e-01 -3.888018e+00 104 78 0
-5.071689e-01 3.207781e-01 -4.485494e+00 137 159 23
-1.509408e-01 1.847898e-01 -4.268098e+00 103 113 17
-5.338847e-01 2.672429e-01 -4.588289e+00 144 166 26
-5.313633e-01 1.857986e-01 -4.522530e+00 125 152 9
-5.127040e-01 7.587385e-02 -4.242051e+00 200 199 83
-2.110922e-01 -7.095023e-02 -3.826717e+00 113 117 6
-4.551836e-01 -1.110984e-01 -4.093065e+00 135 166 23
-8.119299e-01 -2.575555e-01 -4.243742e+00 213 172 67
-5.773858e-01 -4.310689e-01 -5.542360e+00 192 185 91
-1.724676e-01 -7.205318e-01 -3.899757e+00 198 166 77
-2.711884e-01 -7.979315e-01 -4.135276e+00 167 131 46
-1.081051e-01 -8.827713e-01 -3.988731e+00 176 141 54
-1.368672e-01 -8.834105e-01 -4.029199e+00 180 144 60
8.105177e+00 6.624935e+00 -1.899143e+01 166 152 55
1.385018e+01 3.976682e+00 -1.402918e+01 216 220 123
1.307358e+01 3.923648e+00 -1.404498e+01 211 215 118
4.860204e-01 2.698289e+00 -8.211381e+00 178 164 57
-3.665479e-01 9.601489e-01 -4.357259e+00 214 223 108
-1.707727e-02 5.687211e-01 -3.552995e+00 123 127 7
-4.629675e-01 9.075211e-02 -4.249369e+00 120 124 1
-4.629675e-01 9.075211e-02 -4.249369e+00 120 124 1
-6.017142e-01 2.419370e-01 -5.325501e+00 227 220 122
4.745005e-01 -1.726676e-01 -3.822079e+00 100 112 2
-2.206962e-01 -5.312005e-02 -3.886584e+00 113 122 3
-5.903014e-01 1.038334e-02 -4.256511e+00 144 160 20
-5.018389e-01 -2.142810e-01 -5.410467e+00 155 128 33
-5.333938e-01 -2.396061e-01 -5.453041e+00 214 207 109
-9.439319e-02 -7.307543e-01 -3.899026e+00 161 124 35
1.148625e+00 -1.126626e+00 -4.360709e+00 169 176 86
-3.936200e-01 -9.285129e-01 -4.261750e+00 181 149 61
-3.252606e-01 -9.725770e-01 -4.269114e+00 168 136 46
-7.652773e-01 -8.886100e-01 -4.685992e+00 209 197 101
4.323166e-01 5.909518e-01 -3.504990e+00 208 215 108
-2.241575e-02 7.650697e-01 -4.089521e+00 236 245 94
-3.749003e-02 6.474221e-01 -3.847155e+00 161 168 30
5.129170e-01 3.141347e-01 -3.759918e+00 218 211 120
5.129170e-01 3.141347e-01 -3.759918e+00 218 211 120
1.054963e+00 -3.947585e-01 -3.967546e+00 154 133 42
3.818165e+00 -1.410998e+00 -3.113973e+00 203 215 117
3.014870e+00 -1.226772e+00 -2.638618e+00 203 215 117
5.899448e-01 -9.770496e-01 -4.097213e+00 119 99 12
-6.944192e-01 -6.269042e-01 -4.652479e+00 240 218 124
1.903849e-01 -9.691496e-01 -3.972311e+00 128 85 1
-7.088060e-01 -7.729365e-01 -4.607320e+00 193 164 70
-3.872296e-01 -9.945760e-01 -4.284187e+00 202 165 77
-3.243999e-01 -1.071090e+00 -4.330841e+00 167 142 53
-2.724440e-01 -1.093067e+00 -4.240079e+00 171 145 55
6.804937e+00 5.927380e+00 -1.569663e+01 161 149 51
1.209215e+01 3.729042e+00 -1.453418e+01 202 208 109
1.714761e-01 7.912944e-01 -3.433143e+00 198 210 74
1.714761e-01 7.912944e-01 -3.433143e+00 198 210 74
-4.336545e-01 8.997596e-01 -4.473110e+00 236 247 128
-5.553800e-01 1.061486e+00 -8.368397e+00 219 224 134
-2.069962e-01 7.433249e-02 -4.223613e+00 164 184 51
7.095417e-02 -1.286509e-01 -3.657539e+00 102 108 0
-5.463827e-01 6.150093e-02 -4.290809e+00 120 126 0
-6.150806e-01 5.369630e-02 -4.343818e+00 161 172 34
-7.751417e-01 -2.995517e-01 -4.218630e+00 176 128 25
-6.441714e-01 -3.273682e-01 -5.691371e+00 207 213 115
-1.320475e+00 -2.196798e-01 -6.042872e+00 226 233 139
-6.433032e-01 -4.566818e-01 -5.546520e+00 196 193 100
4.617626e-01 -9.326762e-01 -4.041939e+00 185 160 76
8.159079e+00 5.298788e+00 -1.695491e+01 169 157 51
1.095705e+01 1.462894e+00 -9.293745e+00 209 213 118
4.546800e-01 3.992037e-01 -3.702945e+00 100 86 0
9.891463e-02 3.647524e-01 -3.809806e+00 124 113 0
-4.592934e-01 1.196262e+00 -8.550774e+00 224 229 139
-4.592934e-01 1.196262e+00 -8.550774e+00 224 229 139
1.251225e-01 2.735923e-01 -3.943956e+00 188 181 50
9.759643e-02 -8.844628e-01 -3.932017e+00 180 133 51
-5.469121e-02 -8.609112e-01 -3.926745e+00 135 97 12
1.176102e+01 2.364473e+00 -1.096516e+01 203 207 112
-5.669654e-01 1.907728e-01 -5.264010e+00 185 158 60
1.061329e+00 -4.815060e-01 -4.013330e+00 146 116 28
3.222323e+00 -1.289579e+00 -3.816261e+00 210 216 120
-2.663714e+00 -5.570636e-01 -5.194060e+00 232 235 146
-1.055947e+00 -1.087519e+00 -4.565374e+00 214 223 130
8.329251e-01 -2.223467e-01 -3.945116e+00 119 127 16
3.864229e+00 -1.242884e+00 -4.110027e+00 201 207 111
-2.102441e-01 -1.394605e+00 -3.209485e+00 212 223 127
-2.795574e+00 -6.903954e-01 -4.636698e+00 237 240 151
