ply
format ascii 1.0
element face 0
property list uchar int vertex_indices
element vertex 918
property float x
property float y
property float z
property uchar diffuse_red
property uchar diffuse_green
property uchar diffuse_blue
end_header
-7.509240e-02 8.906298e-01 -4.138449e+00 202 211 69
7.665467e-03 6.293355e-01 -3.420084e+00 210 220 89
-1.492319e-01 6.726190e-01 -4.185441e+00 164 175 38
-1.445136e-01 4.699027e-01 -4.299653e+00 194 211 79
1.048165e+00 2.154670e-01 -4.295586e+00 74 73 6
-5.447190e-01 3.442813e-01 -4.657823e+00 129 153 15
4.616753e+00 -4.608834e-01 -5.678670e+00 208 213 119
-1.298759e-01 1.622983e-01 -4.278210e+00 87 98 0
6.196519e-01 -5.444089e-02 -3.941065e+00 140 161 34
-5.366288e-01 -8.975742e-01 -4.396391e+00 217 207 112
2.294148e-01 2.730407e-01 -3.818219e+00 104 82 0
-2.804316e+00 8.297453e-01 -8.070523e+00 228 233 141
9.788081e-01 9.884631e-03 -4.156217e+00 109 106 11
1.356795e-01 -1.380475e-01 -3.750878e+00 88 97 1
-1.972617e-01 -1.021886e-01 -3.810002e+00 78 79 0
3.340641e+00 -7.983574e-01 -5.228210e+00 214 217 126
1.346947e+00 -4.291905e-01 -4.213122e+00 208 209 119
2.760088e+00 -1.047095e+00 -4.688966e+00 211 214 123
1.316486e+00 -8.052926e-01 -4.118526e+00 185 189 102
-2.333224e-01 -9.591123e-01 -4.150571e+00 124 98 13
-2.843150e+00 -6.878605e-01 -5.235978e+00 228 233 139
-2.926873e+00 -7.990055e-01 -5.150995e+00 237 243 147
-2.926873e+00 -7.990055e-01 -5.150995e+00 237 243 147
-1.912224e+00 -9.660930e-01 -4.845134e+00 228 233 141
8.546225e-01 -1.358622e+00 -3.720598e+00 217 218 125
-1.992133e+00 -1.004112e+00 -4.519796e+00 220 223 132
5.632156e-02 5.341687e-01 -3.685973e+00 114 107 0
-5.342659e-01 6.958212e-01 -4.525737e+00 215 229 117
-1.891119e+00 -1.360223e-02 -6.032794e+00 230 234 140
1.099932e+00 -4.977066e-01 -3.980403e+00 148 106 24
-8.020625e-01 -3.193523e-01 -4.072154e+00 171 125 27
-1.958327e-01 -4.205722e-01 -3.825155e+00 201 173 74
1.244522e+00 -7.630126e-01 -4.304515e+00 186 184 99
-2.079866e+00 -4.803990e-01 -5.543420e+00 228 231 140
1.557900e+00 -1.248342e+00 -4.286433e+00 194 198 111
1.274632e+00 -1.409931e+00 -3.769904e+00 216 217 124
8.774723e-01 -1.764256e-01 -3.841704e+00 125 136 16
4.513672e-01 9.239311e-01 -4.336820e+00 231 242 104
-6.677117e-03 2.666310e-01 -4.034505e+00 195 202 72
-1.495823e+00 -4.232123e-01 -5.858242e+00 220 225 131
4.161836e-01 3.679293e-01 -3.874605e+00 90 64 0
-1.454973e-02 1.292703e+00 -5.256850e+00 229 245 110
1.620760e+00 7.057921e-01 -3.972025e+00 206 216 119
1.620760e+00 7.057921e-01 -3.972025e+00 206 216 119
1.475435e+00 5.990947e+00 -1.874787e+01 182 164 49
2.339584e+00 5.310729e+00 -1.684872e+01 185 169 56
-2.267476e-01 2.195969e-01 -4.321989e+00 106 98 0
-4.347851e-01 -4.264476e-01 -3.962475e+00 198 152 56
5.846105e-01 5.626303e+00 -1.711865e+01 183 166 50
-1.370916e-01 7.402252e-01 -4.138139e+00 204 212 75
-3.768559e-02 4.037222e-01 -4.117797e+00 189 204 79
-3.689055e-01 2.753650e-01 -4.384423e+00 94 90 5
-5.578346e-01 -2.994257e-02 -4.179738e+00 136 148 14
4.050035e-01 -7.810755e-01 -3.935772e+00 160 117 33
-5.356666e-01 -7.017794e-01 -4.316677e+00 174 137 46
1.041842e+00 -1.169027e+00 -4.313351e+00 159 143 62
-4.047961e-02 -1.183903e+00 -4.089560e+00 193 143 54
4.429295e+00 5.461802e+00 -1.715634e+01 195 181 74
4.429295e+00 5.461802e+00 -1.715634e+01 195 181 74
3.604742e+00 4.722265e+00 -1.564004e+01 182 168 61
6.986903e-01 1.405453e+00 -4.472965e+00 219 225 129
9.138061e-01 2.566719e-01 -4.247748e+00 143 158 40
7.976774e-01 -3.024721e-01 -3.842279e+00 154 128 28
3.589084e-01 -1.018865e+00 -3.968551e+00 157 115 35
6.460423e-01 -1.292052e+00 -3.865961e+00 192 192 102
9.453728e-01 1.274543e+00 -4.617922e+00 217 223 123
1.379561e-02 -1.298546e+00 -3.992254e+00 206 186 96
1.716316e+00 -1.144260e+00 -4.363043e+00 206 215 124
3.014509e-01 -8.677172e-01 -3.945985e+00 156 115 33
2.383211e+00 6.297847e+00 -1.896212e+01 143 124 20
2.383211e+00 6.297847e+00 -1.896212e+01 143 124 20
-2.007368e+00 5.514309e+00 -1.676563e+01 198 180 70
2.184986e-01 8.462682e-01 -3.432874e+00 197 207 74
-2.654511e+00 9.669570e-01 -8.081070e+00 221 226 134
-6.592196e-01 -1.145546e+00 -4.320251e+00 205 205 109
-2.829318e+00 -1.105833e+00 -4.338275e+00 233 243 147
2.237912e+00 5.483345e+00 -1.717718e+01 202 185 70
-3.746446e-01 1.047304e+00 -4.510380e+00 214 224 119
1.591653e+00 -1.181751e+00 -4.307995e+00 187 195 109
2.165430e+00 -1.376013e+00 -3.437324e+00 213 216 127
5.421230e-01 -1.207383e+00 -3.967841e+00 177 165 79
4.843232e+00 1.820087e+00 -9.931997e+00 209 215 119
-4.438184e-02 6.158653e-01 -3.640264e+00 149 155 25
-1.587084e-02 -2.975487e-01 -3.703583e+00 99 118 0
3.396334e-01 7.747031e-01 -3.473855e+00 177 188 57
-1.728814e-01 7.283297e-01 -4.133206e+00 185 196 58
2.561068e-01 6.979703e-01 -3.346468e+00 176 187 60
7.991903e-01 3.030083e-01 -4.230092e+00 148 160 52
5.511953e-02 4.224849e-02 -3.718134e+00 139 121 11
8.460480e-02 -3.110899e-02 -3.664385e+00 146 128 0
1.192420e+00 -4.462894e-01 -3.956551e+00 175 158 80
2.109141e-01 -5.877735e-01 -3.663804e+00 163 110 34
-2.679292e-01 -1.009035e+00 -4.163859e+00 154 122 35
2.559070e+00 5.658770e+00 -1.785189e+01 200 184 66
6.907384e-01 1.148214e+00 -4.484685e+00 77 75 6
8.754912e-01 1.080416e+00 -4.536876e+00 133 137 14
9.389681e-01 1.072781e+00 -4.538301e+00 211 219 118
9.389681e-01 1.072781e+00 -4.538301e+00 211 219 118
3.501680e-01 6.640799e-01 -3.443756e+00 153 161 43
-1.603654e-01 2.652722e-01 -4.297719e+00 126 137 17
-2.299103e-01 1.917208e-01 -4.287237e+00 188 176 75
6.899565e-01 2.474356e-01 -3.949125e+00 118 105 7
9.074747e-01 2.082696e-01 -4.306701e+00 109 121 20
6.669762e-01 2.043592e-01 -3.956653e+00 120 105 12
1.001513e+00 4.912058e-02 -4.157765e+00 119 119 26
-6.871832e-01 -5.153118e-02 -4.250549e+00 187 181 65
-3.061518e-01 -2.169153e-02 -4.081559e+00 143 173 14
-8.807866e-02 -6.278283e-01 -3.727626e+00 187 137 50
-3.126161e-01 -8.334804e-01 -4.129754e+00 185 154 63
1.742857e-01 -1.161395e+00 -4.048020e+00 163 107 32
-5.880712e+00 3.554774e+00 -1.328768e+01 232 237 145
1.899257e-01 1.132518e+00 -4.210146e+00 199 209 86
6.258364e-01 1.111601e+00 -4.426447e+00 104 106 7
2.142284e-01 1.079368e+00 -4.255029e+00 179 188 61
3.121922e-01 9.121140e-01 -3.451400e+00 216 226 95
8.310252e-01 9.234334e-01 -4.503411e+00 106 109 9
2.774245e-01 7.195367e-01 -3.378778e+00 178 189 61
6.852131e-01 6.444148e-01 -4.096934e+00 141 116 23
2.471262e-01 6.220641e-01 -3.393812e+00 139 141 29
6.101448e-01 5.794595e-01 -3.847687e+00 142 100 22
9.672566e-01 5.530753e-01 -4.459485e+00 100 107 5
-2.078154e-01 2.716871e-01 -4.345736e+00 109 116 1
-3.145625e-02 2.820048e-01 -4.020610e+00 202 214 78
9.403620e-02 2.169422e-01 -3.834626e+00 164 161 26
1.272240e-01 1.642034e-01 -3.938708e+00 172 169 37
6.236555e-01 1.269661e-01 -3.992522e+00 108 100 18
-4.025339e-01 -1.070224e-01 -4.033257e+00 129 161 9
9.677123e-01 -6.946161e-02 -4.017117e+00 106 113 8
-8.092639e-01 -2.206839e-01 -4.251452e+00 199 185 80
1.029424e-01 -1.025358e+00 -3.981601e+00 162 109 29
7.057496e-01 -1.051935e+00 -4.145623e+00 141 114 40
1.138693e+00 -1.124671e+00 -4.220346e+00 166 167 87
1.632381e+00 -1.213549e+00 -4.244343e+00 196 209 121
2.015012e-02 -1.223499e+00 -3.944254e+00 183 146 57
4.363087e-01 8.385758e-01 -3.571540e+00 166 178 50
8.253507e-01 8.380555e-01 -4.547322e+00 92 92 2
-1.237046e-01 5.797684e-01 -4.147212e+00 198 209 81
7.655098e-01 4.311381e-01 -4.260593e+00 190 177 75
5.553894e-01 3.951681e-01 -3.816273e+00 117 85 12
6.895759e-01 3.387754e-01 -4.078746e+00 148 140 39
9.901116e-01 2.800063e-01 -4.281089e+00 185 196 100
6.575486e-01 2.268154e-01 -4.020474e+00 161 146 51
1.801116e-01 1.572325e-01 -4.010707e+00 139 129 9
1.073606e-01 8.885866e-02 -3.825226e+00 141 136 10
-7.066084e-01 -1.644901e-01 -4.220430e+00 199 169 66
9.974347e-01 -1.157551e-01 -4.060024e+00 124 132 28
1.027448e+00 -1.485532e-01 -4.232134e+00 124 132 28
9.090392e-01 -2.885783e-01 -3.919413e+00 149 125 36
-8.320027e-01 -8.357135e-01 -4.499634e+00 208 208 110
-3.747013e-01 -1.190450e+00 -4.368411e+00 201 189 95
9.612562e-01 -1.144450e+00 -4.205434e+00 155 141 66
1.269443e+00 -1.196640e+00 -4.085897e+00 186 196 109
-3.330294e+00 2.844966e+00 -1.177346e+01 216 226 127
5.963704e-01 1.246197e+00 -4.497249e+00 61 60 0
1.064347e-02 1.191712e+00 -4.249273e+00 199 212 71
7.171848e-01 1.085966e+00 -4.504335e+00 63 60 0
8.418896e-01 7.739694e-01 -4.298721e+00 118 120 10
-4.293697e-01 7.115607e-01 -4.406983e+00 200 210 88
4.356111e-01 6.835520e-01 -3.448350e+00 140 146 35
6.608711e-01 4.568758e-01 -4.002351e+00 128 95 10
6.114722e-01 4.118452e-01 -3.835214e+00 157 139 50
5.591948e-01 3.347723e-01 -3.807062e+00 144 127 43
5.591948e-01 3.347723e-01 -3.807062e+00 144 127 43
1.218186e+00 2.472850e-01 -4.894204e+00 206 214 127
5.814022e-01 2.740047e-01 -3.820131e+00 92 75 0
5.296487e-01 2.185725e-01 -3.829252e+00 123 106 18
1.160762e+00 1.413224e-01 -4.507109e+00 152 133 49
-1.054282e-01 1.314505e-01 -4.057510e+00 217 219 72
-1.774910e-01 1.902552e-02 -3.821462e+00 220 228 83
9.722252e-02 3.354632e-02 -3.817570e+00 84 68 0
-1.308462e-01 -9.686654e-02 -3.703015e+00 183 174 31
-1.664857e-01 -1.584305e-01 -3.743529e+00 97 105 0
-4.845060e-01 -4.276977e-01 -4.001083e+00 181 134 38
-1.298015e-01 -8.509970e-01 -3.921919e+00 209 182 95
1.286057e+00 -1.043258e+00 -4.315396e+00 182 186 104
-1.491269e+00 -1.173142e+00 -3.922283e+00 225 235 138
-1.414257e+00 -1.214808e+00 -3.781255e+00 226 232 134
8.033705e-01 -1.236535e+00 -3.984696e+00 174 174 88
-4.332816e+00 3.601553e+00 -1.356309e+01 220 226 130
6.568843e-01 1.373753e+00 -4.526863e+00 114 117 19
6.015605e-02 1.130010e+00 -4.186901e+00 233 245 111
-3.514339e+00 1.241740e+00 -8.651701e+00 227 233 135
1.398392e-01 1.099107e+00 -4.145880e+00 195 205 73
6.389086e-01 1.037471e+00 -4.396057e+00 124 127 13
-1.727112e-01 9.548574e-01 -4.177492e+00 214 226 89
-3.848502e+00 8.632144e-01 -8.084731e+00 232 236 142
6.180504e-01 6.478124e-01 -4.027525e+00 167 143 50
1.008052e+00 4.404021e-01 -4.791735e+00 212 220 119
1.342143e-01 3.349614e-01 -3.617411e+00 110 100 0
4.022426e-01 1.674356e-01 -3.860449e+00 58 42 0
2.316172e-01 1.477018e-01 -3.912037e+00 153 145 38
2.316172e-01 1.477018e-01 -3.912037e+00 153 145 38
-6.228973e-01 -9.341564e-02 -4.190749e+00 119 124 1
1.124626e+00 -9.730372e-02 -4.344912e+00 146 126 39
-1.870946e+00 -4.875412e-01 -5.478687e+00 219 225 127
8.980930e-01 -4.524166e-01 -3.729551e+00 139 91 17
1.963313e+00 -8.205982e-01 -5.073190e+00 196 205 114
1.779941e+00 -8.269337e-01 -4.874007e+00 196 206 119
-2.889019e+00 -1.152574e+00 -4.448807e+00 236 241 149
-2.139235e+00 -1.159343e+00 -4.399753e+00 222 228 132
1.416088e+00 -1.070203e+00 -4.555421e+00 183 191 108
7.484773e-01 -1.016170e+00 -4.140440e+00 179 152 80
-4.698425e-02 -1.235304e+00 -4.122915e+00 187 142 55
1.606796e+00 -1.298178e+00 -4.305293e+00 191 204 116
1.526169e-01 -1.338281e+00 -4.007553e+00 198 183 96
-3.612875e+00 3.340596e+00 -1.247807e+01 219 226 130
-7.493117e-02 8.899278e-01 -4.123436e+00 200 211 70
2.164964e-01 8.464933e-01 -3.443992e+00 184 195 65
-1.558550e-01 6.741559e-01 -4.089699e+00 164 174 43
-3.238193e-01 -1.217668e-01 -3.920843e+00 151 173 26
-2.823292e+00 -8.382124e-01 -4.750245e+00 228 231 140
-3.130768e+00 -9.895916e-01 -4.339836e+00 221 231 135
-2.806127e+00 -1.368932e+00 -3.887544e+00 229 235 139
-2.027158e-01 -9.114440e-02 -3.788244e+00 77 84 0
1.726588e-01 -1.439888e-01 -3.847672e+00 73 82 0
-2.725456e+00 -6.427124e-01 -4.893662e+00 224 228 134
1.107327e+00 -3.106141e-01 -3.870321e+00 167 123 50
-4.823261e-03 1.355572e+00 -4.356321e+00 148 157 32
2.722785e-01 1.262268e+00 -4.319402e+00 213 224 122
-5.554055e-01 6.044296e-02 -4.283668e+00 177 171 58
-3.963089e-01 -1.071020e-02 -3.981949e+00 168 197 41
-4.088799e-01 -2.890502e-02 -4.092888e+00 168 197 41
9.279507e-01 1.467120e-02 -4.078844e+00 123 122 33
9.279507e-01 1.467120e-02 -4.078844e+00 123 122 33
2.885039e-01 -3.390094e-02 -3.869606e+00 130 141 11
-2.061271e+00 -4.739059e-01 -5.492903e+00 224 230 132
6.944573e-03 -2.651200e-01 -3.769187e+00 95 102 0
1.708136e+00 -7.425319e-01 -5.199276e+00 171 183 98
1.097382e+00 -5.010962e-01 -3.963481e+00 139 100 23
-2.614321e+00 -1.160071e+00 -3.952156e+00 227 232 138
-2.894309e+00 -3.260834e-01 -5.698602e+00 226 230 135
-3.958874e+00 -1.047075e+00 -6.616533e+00 232 236 142
2.643770e-01 8.357045e-01 -3.445434e+00 201 211 80
9.058450e-01 7.488875e-01 -4.538341e+00 103 102 0
4.430463e-01 3.938404e-01 -3.769537e+00 86 58 7
8.426428e-01 2.599310e-01 -4.218109e+00 134 142 41
2.699687e+00 1.308547e+00 -3.500620e+00 206 206 111
8.827114e-01 1.071403e+00 -4.553005e+00 131 139 18
8.713382e-01 4.184320e-01 -4.432852e+00 139 140 40
9.487151e-01 2.791843e-01 -4.259437e+00 162 173 75
2.064242e-01 -6.445418e-02 -3.835763e+00 121 125 0
-2.288232e-02 -2.244407e-01 -3.709059e+00 118 127 4
-3.253774e-01 6.688474e-01 -4.289745e+00 192 203 77
4.680760e-01 2.304669e-01 -3.749680e+00 90 73 0
1.633573e-01 -2.833588e-01 -3.714491e+00 106 131 4
-1.769752e-01 -7.137408e-01 -3.879316e+00 166 128 45
-8.364505e-02 -8.119771e-01 -3.909852e+00 157 115 34
-1.389885e-01 1.382761e+00 -4.305571e+00 193 205 89
-6.115778e-01 -1.509294e-01 -4.178562e+00 186 168 66
-5.133395e-01 -1.050650e+00 -4.427001e+00 169 142 58
1.131079e+00 -7.202022e-01 -4.263786e+00 147 116 46
1.160082e+00 -1.192223e+00 -4.313867e+00 179 175 96
-3.419157e+00 8.420625e-01 -7.654047e+00 233 233 145
-3.742705e+00 8.426033e-01 -7.825784e+00 232 237 147
1.980821e+00 -5.729572e-01 -5.111588e+00 212 219 139
-2.970035e+00 -4.887319e-01 -5.398708e+00 227 230 143
-2.912115e+00 -9.720915e-01 -4.589804e+00 235 239 152
1.512514e+00 -1.363720e+00 -3.294148e+00 215 217 133
-3.458247e+00 8.524240e-01 -7.764625e+00 233 233 145
8.508503e-02 2.678595e-01 -3.733732e+00 193 193 68
-3.462668e+00 5.346871e-01 -7.368398e+00 231 232 144
-3.492318e+00 5.375704e-01 -7.474019e+00 231 232 144
-1.995257e+00 -1.022229e+00 -5.191662e+00 226 235 142
2.757840e+00 -5.332927e-01 -5.236568e+00 216 219 140
3.543390e-01 -4.529070e-01 -3.650978e+00 178 134 59
5.581835e-01 1.523850e+00 -4.480022e+00 206 219 127
8.231490e-01 1.485859e+00 -4.535065e+00 203 218 125
1.384359e+00 9.599612e-01 -2.301759e+00 212 222 118
1.228924e-01 -1.007676e+00 -3.876153e+00 154 107 29
-3.699180e-02 -1.685624e-01 -3.609914e+00 136 132 4
2.569808e-01 -2.894585e-01 -3.710885e+00 103 124 3
3.267969e+00 1.322365e+00 -8.803163e+00 215 218 129
3.778925e+00 8.398385e+00 -2.342148e+01 182 171 65
-9.805634e-01 1.395962e+00 -3.250219e+00 185 180 66
2.887638e+00 2.396573e+00 -7.166253e+00 179 166 62
-3.662673e-01 2.382050e-01 -4.401060e+00 87 81 14
3.965291e-01 1.514408e+00 -4.624769e+00 213 223 124
2.299664e+00 -6.073585e-01 -5.246651e+00 210 219 126
-2.022125e-01 7.659003e+00 -2.478022e+01 198 181 62
4.577466e+00 7.375238e+00 -2.123946e+01 164 156 47
5.092052e+00 4.779115e+00 -1.484726e+01 191 174 66
-1.581580e+00 1.453547e+00 -9.050782e+00 213 228 127
9.557207e-01 -1.089351e-01 -4.004699e+00 116 131 12
3.106268e-01 7.883543e-01 -3.429994e+00 182 192 61
9.042803e-01 1.229032e+00 -4.620734e+00 105 112 3
-2.994156e+00 1.038001e+00 -8.286114e+00 218 224 126
6.175791e-01 -1.122038e+00 -4.114816e+00 152 118 44
-4.040791e-01 5.145469e+00 -1.549661e+01 182 165 51
-1.184922e-03 3.615278e-01 -4.084470e+00 205 214 87
-5.956109e-01 3.071345e-01 -5.005435e+00 188 184 80
-7.720976e-02 1.588535e-01 -3.902243e+00 203 208 62
-6.950596e-01 -9.520310e-01 -4.584826e+00 197 154 66
-2.596084e-01 -1.047500e+00 -4.215758e+00 170 130 45
7.860251e+00 9.778375e+00 -2.619550e+01 157 142 45
-5.941158e+00 8.970417e+00 -2.698714e+01 208 194 72
-6.726903e-01 4.409878e+00 -1.476256e+01 221 225 125
-1.263298e-01 1.124641e+00 -4.236537e+00 231 243 105
-4.779788e-01 4.471733e-01 -4.557809e+00 205 220 91
-3.647069e-01 2.738456e-01 -4.391559e+00 92 89 7
-1.565230e-01 -7.602649e-01 -3.947900e+00 187 155 70
-2.561793e+00 1.006928e+01 -2.599725e+01 174 161 63
6.943528e-01 1.057869e+00 -2.144593e+00 179 165 66
1.396887e-01 6.824164e-01 -3.324063e+00 202 213 81
1.293998e+00 3.043669e-01 -4.514005e+00 213 224 128
-3.138040e-02 2.776962e-01 -4.066697e+00 199 211 79
6.882847e-01 -1.601419e-01 -3.876235e+00 118 148 14
-6.915007e-02 -7.476836e-01 -3.844208e+00 178 136 52
-3.165519e-01 -7.991376e-01 -4.153897e+00 162 125 40
-1.728285e+00 7.463765e+00 -2.122115e+01 197 181 70
-4.566123e-02 6.189057e-01 -4.111215e+00 183 193 59
-2.866825e-01 5.341403e-01 -4.414823e+00 149 161 32
1.351274e+00 -1.114914e+00 -4.535237e+00 185 189 103
1.186285e+00 -1.202714e+00 -4.359384e+00 173 176 89
1.062329e+00 -1.238497e+00 -4.237595e+00 184 180 95
8.317413e-01 -7.299009e-01 -4.073395e+00 129 87 5
8.076309e-01 -7.210832e-01 -4.017677e+00 129 87 5
1.645751e+00 -1.117424e+00 -4.328135e+00 206 213 120
-5.452795e-01 -1.084848e+00 -4.363434e+00 210 196 107
1.077242e+01 1.095545e+01 -2.898199e+01 179 167 75
1.369965e+00 -1.228710e+00 -3.974672e+00 195 198 109
9.823269e-02 2.813535e-01 -3.862201e+00 190 192 57
-3.840009e-01 1.099331e+00 -4.424981e+00 214 224 116
-6.524395e-01 -6.659247e-01 -4.440908e+00 148 104 17
-1.825382e-01 1.139760e+00 -4.405081e+00 229 245 110
6.140583e-01 1.368004e+00 -4.491707e+00 138 134 29
1.017052e+00 1.248968e+00 -4.712802e+00 216 224 124
-1.225822e-01 1.230482e+00 -4.408064e+00 229 237 102
-8.155068e-02 3.390988e-01 -4.282602e+00 153 172 54
-3.111114e-01 -7.952004e-03 -4.028770e+00 141 171 15
-6.612388e-01 -4.961701e-02 -4.234231e+00 143 154 15
8.606028e-01 1.208286e+00 -4.646114e+00 109 113 4
-3.757327e-02 4.045568e-01 -4.121314e+00 189 204 79
-1.150167e-01 -9.180861e-01 -3.966726e+00 175 142 55
2.623069e-01 1.091318e+00 -4.291727e+00 196 202 64
-3.907845e-01 8.713221e-01 -4.321628e+00 223 232 103
-3.156188e-02 7.800287e-01 -3.768356e+00 218 226 88
1.001636e+00 5.909902e-01 -4.453371e+00 224 226 125
-4.241978e-01 6.244519e-01 -4.466713e+00 191 200 73
-8.000141e-03 3.141396e-01 -4.025042e+00 210 220 90
-6.246389e-01 7.949965e-02 -4.350839e+00 161 167 33
-6.856815e-01 -1.142901e-01 -4.265008e+00 186 169 53
-7.198850e-02 -3.247458e-01 -3.711466e+00 136 143 17
-4.816469e-01 -9.410392e-01 -4.343075e+00 162 139 45
-5.219606e-01 -9.607557e-01 -4.379420e+00 177 147 56
-1.709390e-01 -1.080001e+00 -4.155307e+00 184 143 53
-4.018638e-01 -1.157330e+00 -4.426168e+00 199 186 90
6.140540e-01 1.395260e+00 -4.487110e+00 128 126 28
-7.140843e-02 7.678326e-01 -4.134089e+00 197 206 65
8.413367e-02 5.922001e-01 -3.415168e+00 162 165 49
1.806982e-01 5.330545e-01 -3.485199e+00 102 91 3
4.326847e-02 3.245154e-01 -3.994823e+00 181 187 57
-2.141013e-01 -4.910575e-02 -3.889623e+00 118 131 4
-3.905465e-01 -9.686029e-02 -4.042998e+00 134 163 9
-3.241159e-01 -1.534784e-01 -3.957269e+00 148 178 33
-5.595166e-01 -4.575570e-01 -4.086653e+00 208 157 60
-9.271120e-03 -1.001287e+00 -3.969962e+00 188 135 55
6.460202e+00 5.491088e+00 -1.800451e+01 169 156 52
1.360984e-01 8.209683e-01 -3.438386e+00 204 214 81
-2.956681e-02 1.963406e-01 -3.922731e+00 218 222 72
4.077117e+00 -6.384569e-01 -5.349426e+00 215 218 127
-1.414630e+00 -2.402181e-01 -6.085071e+00 220 230 131
-1.750255e+00 -1.951561e-01 -6.021612e+00 221 227 131
1.209274e+00 -1.219353e+00 -4.190280e+00 193 200 114
-8.854555e-01 -1.020027e+00 -4.532498e+00 208 214 114
1.295002e+00 -1.535401e+00 -3.107753e+00 218 221 130
-2.525128e-01 1.321908e+00 -4.340897e+00 217 224 121
-4.000249e-01 1.002958e+00 -8.247234e+00 210 222 122
-4.787390e-01 2.669571e-01 -4.464424e+00 112 111 7
3.242061e-02 1.932637e-01 -3.786830e+00 156 150 0
3.650049e+00 -7.171818e-01 -5.566601e+00 203 206 115
-2.039400e-01 7.884733e-02 -4.223004e+00 165 186 45
-5.419792e-01 2.667247e-02 -4.218950e+00 129 127 8
1.187331e+00 -4.417118e-01 -3.948814e+00 204 203 111
-8.014711e-01 -4.428549e-01 -4.380420e+00 184 150 43
1.126247e+00 -9.153127e-01 -4.266879e+00 189 177 95
-4.723052e-01 -8.544581e-01 -4.303723e+00 217 201 105
1.066146e+00 -1.276353e+00 -3.979161e+00 200 203 114
-2.578835e+00 1.181170e+00 -8.520574e+00 220 225 135
2.951760e-01 4.438587e-01 -3.538900e+00 116 96 1
2.367791e-02 -1.913451e-01 -3.638700e+00 101 110 0
-4.375557e-01 -1.551759e-01 -4.065019e+00 93 115 0
-2.304909e-01 -8.145545e-01 -4.017107e+00 195 166 77
-5.571846e-02 -8.831925e-01 -3.889520e+00 137 99 14
-5.815143e-01 -1.000343e+00 -4.375601e+00 174 140 51
-1.125903e-02 1.351269e+00 -4.382763e+00 169 173 49
2.585775e+00 -1.345237e+00 -4.143713e+00 210 215 125
2.254842e-01 9.633483e-01 -3.679655e+00 232 239 106
-5.576327e-01 5.639045e-02 -4.240512e+00 138 133 18
-2.541780e+00 1.424173e-01 -6.560906e+00 230 233 142
-1.802629e-01 -2.407748e-01 -3.637801e+00 130 142 18
4.186909e-01 1.196818e+00 -4.120175e+00 64 66 0
3.195821e-01 3.282596e-01 -3.607018e+00 69 39 2
1.283817e+00 2.346279e+00 -4.663801e+00 175 162 50
-2.578727e-01 1.495878e-01 -4.259854e+00 124 124 18
1.055387e+00 -1.257648e+00 -4.146889e+00 182 186 100
-1.700124e-01 1.965730e-01 -4.251610e+00 119 116 16
-6.249365e-01 8.532525e-02 -4.313212e+00 184 182 71
1.369959e+00 -1.046455e-01 -4.775163e+00 173 155 69
4.162797e-01 1.200780e+00 -4.491507e+00 75 78 0
9.368603e-01 7.313949e-01 -4.516455e+00 103 107 11
2.859667e-01 6.492027e-01 -3.406994e+00 146 150 39
1.062504e+00 -2.977960e-01 -4.033549e+00 159 123 45
7.112713e-02 -5.485086e-01 -3.661056e+00 178 133 47
1.109525e+00 -1.171684e+00 -4.366107e+00 155 139 63
1.025675e+00 -1.215691e+00 -4.269214e+00 162 156 78
-4.976102e-01 -6.715642e-01 -1.986506e+00 214 221 118
-5.811146e-01 -1.226449e+00 -4.060342e+00 214 218 121
1.449456e-01 -1.208805e+00 -4.046783e+00 176 119 40
-2.645682e+00 1.187751e+00 -8.760209e+00 213 223 124
1.724713e+00 -4.947161e-01 -5.478486e+00 186 195 112
1.843432e+00 -7.384770e-01 -5.065240e+00 195 208 120
-2.042299e+00 -1.070349e+00 -4.368126e+00 228 233 139
-2.903379e+00 1.307460e+00 -9.046632e+00 219 229 130
-3.474657e+00 6.725864e-01 -7.834119e+00 225 229 134
3.876272e+00 5.487343e+00 -1.721725e+01 193 181 73
-5.386475e-01 8.364425e-02 -4.241308e+00 195 195 82
-3.896628e-01 6.343807e-01 -4.437640e+00 167 177 52
-3.926000e-01 6.313366e-01 -4.429276e+00 167 177 52
-1.235617e-01 3.897723e-02 -3.781334e+00 162 162 8
-3.648923e-01 -1.153582e+00 -4.282576e+00 206 188 101
7.097227e+00 1.119265e+01 -2.807068e+01 141 146 73
1.928082e-01 3.590290e+00 -9.305615e+00 186 175 61
7.021667e+00 5.557712e+00 -1.829266e+01 169 156 54
-3.552880e-01 3.630838e-01 -4.438522e+00 176 192 68
-7.805667e-01 -7.085661e-02 -4.360284e+00 223 229 132
-2.214100e+00 2.024095e+00 -5.218947e+00 189 173 66
1.056648e+01 6.477751e+00 -1.993793e+01 155 138 46
6.208957e-01 -1.245655e+00 -4.146712e+00 177 161 83
-2.362700e+00 3.355808e+00 -1.297425e+01 213 225 127
-5.053670e-01 1.397514e-01 -4.276609e+00 129 138 9
-1.683269e-01 1.987133e-01 -4.244190e+00 118 113 9
9.733767e-01 3.063964e-01 -4.326762e+00 168 177 72
-2.846886e-01 5.314694e-04 -4.101756e+00 137 166 12
-7.696990e-01 -1.502226e-01 -4.223762e+00 208 196 89
4.953027e-01 1.173587e+00 -4.465825e+00 90 90 0
6.224985e-01 9.971959e-01 -4.357650e+00 101 96 0
1.057132e-01 1.270660e+00 -4.467970e+00 205 211 92
7.561113e-01 1.238729e+00 -4.529592e+00 92 90 5
8.815614e-01 1.044322e+00 -4.614653e+00 131 133 13
7.111645e-01 9.951330e-01 -4.452102e+00 85 83 0
-3.035351e-01 8.364822e-01 -4.219011e+00 213 223 90
1.426466e-01 3.880679e-01 -3.539227e+00 123 110 1
-5.953834e-01 -7.206371e-02 -4.221781e+00 146 162 25
1.395018e+00 -3.640553e-02 -4.893981e+00 176 150 66
6.543088e-01 -2.070073e-01 -3.803266e+00 108 136 13
9.731482e-01 1.342455e+00 -4.684871e+00 211 217 121
2.141191e-01 1.179437e+00 -4.440021e+00 189 195 80
2.769846e-01 7.195309e-01 -3.380381e+00 177 186 61
7.831823e-01 4.841960e-01 -4.378160e+00 91 75 0
-5.571796e-01 1.966917e-01 -4.376442e+00 150 166 39
6.810692e-01 4.654479e-02 -4.026766e+00 90 103 9
-5.619661e-01 -4.079103e-01 -4.074573e+00 184 135 37
1.733094e+00 3.874925e-01 -7.195878e+00 216 221 131
4.681429e-01 -1.186634e-01 -3.845479e+00 92 88 1
-2.465826e+00 -8.486038e-01 -4.700311e+00 225 229 135
-4.390123e-01 -1.052971e+00 -4.366630e+00 177 160 68
4.329864e-01 -1.065956e+00 -4.055394e+00 138 102 31
3.331906e-01 -1.154964e+00 -4.037430e+00 156 112 37
-1.929964e+00 -1.415729e+00 -3.112139e+00 227 227 137
8.188313e-01 1.306971e+00 -4.586253e+00 214 219 120
-2.308723e-01 8.974088e-02 -4.177405e+00 167 183 40
-6.774435e-01 -6.070764e-01 -4.320196e+00 160 117 25
1.595752e+00 -6.409631e-01 -5.261989e+00 177 176 94
-1.020919e+00 -1.394149e+00 -3.347619e+00 216 222 126
-1.374017e+00 -1.527585e+00 -2.926693e+00 219 223 129
-2.624262e+00 8.379041e-01 -8.171208e+00 222 233 131
-9.508284e-01 -1.353481e+00 -3.716698e+00 211 218 122
-1.050131e+00 -1.391005e+00 -3.212271e+00 225 231 135
-1.762347e+00 -1.245754e+00 -3.900871e+00 227 233 137
-6.269530e-01 -1.192851e+00 -4.152447e+00 213 223 127
-2.048319e+00 -4.452210e-01 -5.540717e+00 220 230 131
-3.761922e+00 -7.222482e-03 -6.333962e+00 236 236 146
-3.761922e+00 -7.222482e-03 -6.333962e+00 236 236 146
-8.113079e-01 -5.774323e-01 -4.291731e+00 225 232 130
-3.328122e+00 8.989437e-02 -6.559661e+00 230 234 140
-8.761014e-02 -1.123304e+00 -4.101813e+00 188 142 58
7.572778e+00 6.516139e+00 -1.865417e+01 167 148 45
6.106922e+00 7.315773e+00 -2.176606e+01 180 168 56
-3.825414e+00 7.625571e-01 -7.819733e+00 227 231 137
5.379313e-01 1.405751e+00 -4.524267e+00 211 222 114
-2.818067e+00 -6.865097e-01 -5.088412e+00 228 231 140
-5.632607e-01 4.382006e+00 -1.458067e+01 231 227 133
1.415710e-01 6.211811e-01 -3.396096e+00 174 178 58
-5.239709e-01 1.188285e-01 -4.268869e+00 124 128 14
-5.892239e-01 -3.662665e-01 -4.079880e+00 213 163 74
-7.215585e-01 -6.197908e-01 -4.489434e+00 200 146 66
6.323883e-02 6.763291e-01 -3.399334e+00 210 223 92
2.076282e-01 5.491887e-01 -3.481384e+00 108 97 11
-5.855400e-01 1.981024e-01 -4.494647e+00 140 162 28
-4.455316e-01 -9.078328e-01 -4.288392e+00 172 145 58
-5.943826e-01 2.741085e-01 -5.347945e+00 189 179 88
-6.831971e-02 5.624315e-01 -4.163219e+00 187 201 78
-1.344703e-01 3.462850e-01 -4.412150e+00 91 107 0
-6.533956e-01 -3.768937e-01 -5.858362e+00 215 215 127
-5.509299e-01 -7.440496e-01 -4.342063e+00 225 187 106
-6.448377e-01 -8.141074e-01 -4.471089e+00 137 99 14
8.336730e-01 -3.766494e-02 -4.003050e+00 130 147 33
9.980425e-01 -2.164813e-01 -3.997783e+00 119 125 28
6.488968e+00 2.645014e+00 -1.183165e+01 200 214 117
-8.324417e-02 -1.360077e-01 -3.644057e+00 214 203 54
-8.183685e-01 2.948261e-01 -7.143617e+00 218 228 139
-2.786196e-01 3.130888e-01 -4.323598e+00 149 161 45
4.418569e+00 7.574014e+00 -2.172924e+01 160 149 41
5.900977e+00 7.131199e+00 -2.126863e+01 179 167 59
7.947156e+00 4.835961e+00 -1.630680e+01 181 167 63
8.540763e+00 6.625753e+00 -2.029802e+01 141 123 23
-1.344333e+00 1.206730e+01 -3.062458e+01 149 151 69
-5.242956e+00 1.076083e+01 -2.636500e+01 47 52 1
1.416042e+01 4.443379e+00 -1.514246e+01 226 222 122
-1.243791e+00 1.200092e+00 -2.220064e+00 186 169 53
1.001972e+00 5.602850e+00 -1.842941e+01 194 181 65
6.641355e+00 1.072487e+01 -2.747393e+01 163 160 79
-5.069515e+00 1.116403e+01 -2.707135e+01 141 151 82
4.653446e+00 4.246162e+00 -1.394711e+01 181 165 54
-3.689783e-03 5.308852e-01 -4.094294e+00 183 192 65
-7.054161e-01 -7.184371e-01 -4.532855e+00 177 140 51
5.641016e+00 1.059408e+01 -2.759181e+01 153 144 48
5.744808e+00 8.892570e+00 -2.411258e+01 154 137 38
-2.888387e+00 1.063569e+01 -2.757281e+01 172 158 64
4.012288e+00 7.458086e+00 -2.151007e+01 179 163 53
6.606156e+00 5.281250e+00 -1.709190e+01 174 158 47
7.799704e+00 4.636776e+00 -1.564340e+01 178 166 62
-4.930335e+00 9.178333e+00 -2.735484e+01 207 189 79
-7.906894e-02 7.680846e-01 -4.099264e+00 198 206 68
-7.486992e-02 -3.133075e-01 -3.741012e+00 125 140 16
5.220843e+00 7.413824e+00 -2.207434e+01 182 165 57
-5.343675e+00 9.422494e+00 -2.729236e+01 186 170 59
1.348101e+01 7.356644e+00 -1.999053e+01 153 150 71
4.527022e-02 -6.939398e-01 -3.651680e+00 188 141 53
3.140341e-01 -8.776815e-01 -3.970246e+00 157 116 37
5.307055e+00 8.073517e+00 -2.265845e+01 202 185 81
-5.083569e+00 1.089128e+01 -2.875903e+01 193 177 77
-5.352668e+00 1.015440e+01 -2.765978e+01 159 144 36
-5.337291e+00 9.060745e+00 -2.534461e+01 197 185 65
7.884211e-01 -6.283063e-01 -3.986364e+00 167 118 39
5.955215e-01 -6.849906e-01 -4.012049e+00 165 118 36
-4.942873e+00 7.644311e+00 -2.551879e+01 197 179 68
-2.785997e+00 4.458216e-02 -6.209416e+00 231 235 141
1.629665e+00 6.671147e+00 -1.995107e+01 123 112 8
-1.634161e-01 -2.856954e-01 -3.820039e+00 130 141 19
2.046997e-01 7.153048e-01 -3.339564e+00 200 209 79
1.066582e+00 -5.433750e-01 -3.982288e+00 167 122 41
-1.550244e-02 7.053738e-01 -3.464353e+00 216 224 88
-2.821953e-01 -2.075868e-01 -3.888480e+00 119 141 7
2.590107e-01 -1.040140e+00 -3.962285e+00 164 117 37
1.377889e+01 3.945277e+00 -1.439654e+01 210 220 124
1.401135e-01 5.804252e-01 -3.405954e+00 108 107 0
-5.283354e-01 5.098662e+00 -1.571570e+01 205 189 68
6.131294e+00 4.118319e+00 -1.607039e+01 208 214 118
1.687269e+01 1.289551e+01 -5.168776e+01 180 167 64
-5.897962e+00 5.404812e+00 -1.686610e+01 185 170 51
2.070215e+00 -2.309689e-01 -5.946542e+00 210 220 131
-3.410589e-01 5.174004e+00 -1.644749e+01 186 174 56
1.612863e+00 5.616924e+00 -1.856744e+01 186 174 64
7.792775e-02 -1.247916e+00 -4.025553e+00 182 136 56
3.527256e+00 7.492240e+00 -2.138809e+01 174 162 54
-5.419608e+00 4.448852e+00 -1.118427e+01 170 155 36
-1.152171e+00 1.901246e+00 -5.364533e+00 219 225 123
-4.262577e-01 6.249091e-01 -4.454532e+00 190 200 75
8.064220e+00 1.069299e+01 -2.810877e+01 156 144 52
1.031165e+01 7.641868e+00 -2.668490e+01 174 161 59
7.380842e-02 -7.100782e-01 -3.629085e+00 163 116 36
1.261871e+00 6.675160e+00 -1.892160e+01 185 173 60
-1.543994e+00 -7.408374e-01 -5.106624e+00 224 235 143
2.731092e-01 -1.046613e+00 -3.989888e+00 151 109 30
1.407330e-01 5.827292e+00 -1.834775e+01 205 185 75
2.344051e-01 6.630855e-01 -3.326647e+00 160 170 49
-4.996458e-02 6.484192e-01 -3.531777e+00 188 196 71
-2.454247e-01 4.403436e-01 -4.481019e+00 92 108 9
-5.379108e-01 4.550732e-01 -4.555056e+00 168 187 62
-2.327458e-01 2.222960e-01 -4.267318e+00 113 111 6
-1.777127e-01 1.927987e-01 -4.227199e+00 111 120 13
-4.568966e-01 2.544363e-01 -4.422152e+00 120 122 15
-1.824106e-01 1.273844e-01 -4.269831e+00 113 123 10
4.141057e-01 -8.522920e-02 -3.800782e+00 112 117 17
4.229244e-01 -1.491115e-01 -3.755136e+00 148 150 50
-5.085867e-01 -9.234139e-01 -4.366054e+00 226 199 110
1.364385e+01 4.115435e+00 -1.385823e+01 209 207 121
1.586195e+01 3.507764e+00 -1.287821e+01 202 199 127
1.305953e+01 3.727429e+00 -1.343458e+01 216 215 125
5.112221e+00 5.044482e+00 -1.577608e+01 189 176 71
6.339679e-01 1.440549e+00 -4.473820e+00 211 219 126
-1.736624e+00 8.992431e-01 -1.583551e+00 225 225 135
-1.359387e-01 1.433975e+00 -4.293180e+00 217 228 124
6.880214e-01 1.335673e+00 -4.488654e+00 127 132 37
5.002976e-02 5.486572e-01 -3.513050e+00 133 128 10
-4.776070e-01 6.572186e-01 -4.727727e+00 221 236 130
-5.454436e-01 2.914705e-01 -4.473403e+00 144 171 42
6.032190e-01 -1.136725e-01 -3.853330e+00 124 144 25
-7.015906e-01 2.195639e-01 -5.180937e+00 226 220 132
-5.414012e-01 8.238873e-02 -4.229516e+00 190 190 80
9.453966e-01 -2.821040e-01 -3.960276e+00 153 138 45
-6.569456e-01 -2.782105e-03 -4.316856e+00 156 166 40
-4.759194e-01 -1.036079e-01 -4.116302e+00 144 171 32
4.224350e-01 -8.179693e-01 -3.939822e+00 143 103 24
-2.148672e-01 -7.044066e-01 -3.953761e+00 181 134 54
-1.628987e-01 -7.200294e-01 -3.912812e+00 176 134 50
-7.381301e-01 -6.773155e-01 -4.647679e+00 229 194 107
-5.992446e-02 -8.213588e-01 -3.963260e+00 173 125 48
-2.259909e-01 -9.004076e-01 -4.133949e+00 180 142 61
-6.694099e-01 -8.605709e-01 -4.538256e+00 187 143 60
-4.343025e-01 -9.090194e-01 -4.314943e+00 172 145 58
-7.399361e-02 -1.124453e+00 -4.140219e+00 205 150 68
4.747733e-01 -1.337947e+00 -4.179227e+00 198 179 100
1.179161e+01 6.955192e+00 -2.074726e+01 169 155 66
1.522335e+01 9.759416e+00 -2.997321e+01 170 155 62
1.509352e+01 3.687548e+00 -1.278227e+01 229 226 149
6.103499e+00 5.252205e+00 -1.702165e+01 172 161 56
4.507077e-02 1.345865e+00 -4.365339e+00 214 227 121
-4.283389e-01 7.767793e-01 -4.382787e+00 218 232 109
-9.305755e-02 4.394350e-01 -4.204131e+00 201 217 94
1.670600e+00 -3.976367e-01 -1.013679e+00 205 211 121
8.389183e-01 -5.059434e-02 -3.964491e+00 126 143 32
-5.456067e-01 2.632519e-01 -5.047360e+00 189 173 71
3.302698e-01 -2.487912e-01 -3.769009e+00 110 126 12
-7.079761e-01 -6.063201e-01 -4.408241e+00 198 141 62
-4.341223e-01 -1.083659e+00 -4.358554e+00 188 148 63
-6.193206e-01 -1.055026e+00 -4.498912e+00 226 199 114
-3.482599e-01 -1.120276e+00 -4.340132e+00 183 145 58
-4.327377e-01 6.921933e-01 -4.345394e+00 188 202 79
-1.560649e-01 6.574178e-02 -4.049873e+00 92 112 0
7.676061e-01 -1.814342e-01 -3.892389e+00 113 133 13
8.742859e-01 -1.957513e-01 -3.909763e+00 132 141 33
-5.875869e-01 5.476380e-02 -4.245526e+00 126 130 10
6.898590e-01 -8.089764e-01 -3.980220e+00 120 86 12
-6.019773e-02 -6.626871e-01 -3.685168e+00 201 146 61
-1.234924e-01 -8.604114e-01 -3.954302e+00 231 193 112
-8.126122e-01 -8.225603e-01 -4.968180e+00 212 205 115
-3.793457e-01 -1.054336e+00 -4.344366e+00 216 171 90
-1.399354e-01 -1.136456e+00 -4.150128e+00 220 168 84
1.308564e+01 2.574378e+00 -1.074358e+01 203 201 116
1.075239e+01 3.273559e+00 -1.346429e+01 206 211 117
-3.609377e-01 7.677677e-01 -4.272981e+00 220 231 109
-3.623171e-01 7.684185e-01 -4.275948e+00 220 231 109
8.223361e-02 3.935414e-01 -3.573993e+00 151 142 15
-5.224865e-01 5.314762e-01 -4.576447e+00 113 131 11
-5.374816e-01 1.905857e-01 -4.433580e+00 151 171 41
-4.320571e-01 -7.820867e-01 -4.250703e+00 125 78 2
-7.357302e-01 -7.910693e-01 -4.797979e+00 211 190 99
1.568408e+01 3.336503e+00 -1.279323e+01 208 205 128
8.103032e-01 -5.041269e-02 -3.991618e+00 130 147 32
-6.850862e-01 -8.084340e-01 -4.502661e+00 144 102 18
9.940035e+00 9.438223e-01 -7.647239e+00 206 209 118
9.000468e-01 -2.203781e-01 -3.936037e+00 127 132 30
1.381208e+01 4.017573e+00 -1.416188e+01 219 218 128
1.074670e+01 4.099901e+00 -1.225816e+01 142 140 57
2.196948e+00 -1.338203e+00 -4.084223e+00 206 215 126
5.578917e-01 -3.406939e-01 -4.749786e+00 130 147 19
-6.208782e-01 -7.655400e-01 -4.429911e+00 170 135 48
-7.115416e-02 3.370811e-01 -4.308140e+00 155 176 59
-4.140154e-01 9.111424e-01 -4.423444e+00 214 224 99
1.801505e-01 5.068563e-01 -3.502116e+00 105 93 7
-3.310178e-02 4.070884e-01 -4.126367e+00 182 197 72
-5.407022e-01 4.785337e-01 -4.599256e+00 166 193 50
-5.059875e-01 4.078788e-01 -4.548684e+00 152 174 37
-5.391242e-01 3.000177e-01 -4.504692e+00 145 167 30
-2.625884e-01 1.225751e+00 -4.297466e+00 214 223 106
-3.055930e-02 1.964669e-01 -3.926578e+00 215 220 83
4.194945e-01 6.946189e-01 -3.448554e+00 151 161 38
-1.775964e-01 5.071204e-02 -4.150140e+00 153 189 40
-8.285533e-02 2.787924e-01 -4.323365e+00 67 87 0
2.150217e-02 -1.978470e-01 -3.645258e+00 104 112 3
6.986053e+00 4.498362e-01 -7.663133e+00 206 210 113
-4.925147e-01 5.618263e-01 -4.673308e+00 109 131 0
-6.284752e-01 5.195038e-01 -4.675992e+00 218 224 123
1.165340e+01 2.699329e+00 -1.204035e+01 205 207 108
1.761444e+00 -1.536313e+00 -3.212616e+00 215 221 125
-1.077474e+00 -6.558754e-01 -4.736124e+00 226 231 139
3.847857e+00 6.207568e+00 -1.959068e+01 192 181 73
3.847857e+00 6.207568e+00 -1.959068e+01 192 181 73
1.278815e-01 6.414311e-01 -3.353942e+00 193 198 72
4.109526e-02 5.482233e-01 -3.592929e+00 130 120 8
-3.688566e-01 7.069109e-01 -4.254826e+00 210 219 94
-2.811421e-01 -2.488914e-01 -3.898707e+00 146 156 34
-3.104453e-01 -1.855601e-01 -3.924359e+00 130 151 20
3.492515e+00 8.334845e+00 -2.341849e+01 188 179 76
1.422908e+01 3.735881e+00 -1.308804e+01 181 179 94
1.456527e+01 2.738671e+00 -1.170707e+01 203 203 117
-1.625400e-01 8.984694e-01 -4.177033e+00 238 249 118
-5.890820e-01 -4.207554e-01 -4.210242e+00 220 154 67
-4.055503e-01 8.891143e-01 -4.439356e+00 214 222 103
-4.329894e-01 -7.822999e-01 -4.250049e+00 126 78 0
-1.540325e+00 -7.400261e-01 -5.119598e+00 234 234 146
1.194386e+01 1.122245e+01 -3.807174e+01 174 163 48
1.071079e-01 3.395311e-01 -3.911109e+00 174 177 47
-7.477269e-01 -2.860063e-01 -4.185183e+00 195 149 53
-7.431312e-01 -3.125221e-01 -4.186837e+00 189 141 46
-1.634289e+00 -1.892050e+00 -5.643259e+00 215 219 135
3.532037e+00 5.191503e+00 -1.245035e+01 157 154 78
7.667301e+00 4.787461e+00 -1.552216e+01 170 155 52
1.318795e+01 1.004966e+01 -3.435585e+01 177 161 50
7.393188e+00 6.573699e+00 -2.254298e+01 178 162 52
-8.576289e-02 -4.119143e-01 -3.766732e+00 183 159 58
7.476389e+00 1.034359e+01 -2.648361e+01 160 157 74
8.645146e+00 7.789280e+00 -2.605817e+01 172 160 48
-1.694490e-01 -1.060054e+00 -4.097926e+00 186 141 58
2.258301e+00 5.364065e+00 -1.648478e+01 181 164 51
-6.786324e-01 -8.461825e-01 -4.465593e+00 166 131 37
1.579222e+01 5.510997e+00 -1.933915e+01 173 159 62
9.549959e-01 3.784953e+00 -1.267504e+01 222 226 126
8.756668e+00 5.053428e+00 -1.601522e+01 163 155 54
7.952595e+00 4.814849e+00 -1.572308e+01 166 153 53
4.273798e+00 4.883526e+00 -1.476071e+01 194 180 75
7.886362e+00 4.314276e+00 -1.435532e+01 176 166 65
8.247823e+00 4.265569e+00 -1.413082e+01 173 164 63
1.219948e+01 3.544293e+00 -1.344171e+01 213 217 122
-2.427364e-01 1.294725e+00 -4.822508e+00 211 222 118
7.572251e-01 -1.343639e+00 -4.168319e+00 186 178 97
1.519638e+01 6.881294e+00 -2.436594e+01 180 162 68
7.830966e+00 7.151822e+00 -1.994899e+01 184 169 76
6.728507e+00 6.700887e+00 -1.787201e+01 164 150 53
-1.485306e+00 1.054821e+00 -5.868576e-01 157 170 98
4.270158e+00 8.410079e+00 -2.272420e+01 162 150 50
-1.481588e-01 -6.811415e-01 -3.900821e+00 195 149 64
3.606046e+00 3.097741e+00 -9.543739e+00 172 158 59
-1.597435e-01 -1.249819e+00 -4.195994e+00 224 201 116
8.701341e+00 1.486973e+00 -6.729542e+00 204 203 119
-1.458875e-01 3.473421e-02 -3.879180e+00 226 232 103
1.479488e+01 2.412463e+00 -1.191074e+01 217 217 131
-1.657762e+00 -7.954147e-01 -4.961125e+00 227 230 141
-2.320663e-01 2.504186e-01 -4.325762e+00 119 121 15
-2.138368e-01 2.206639e-01 -4.315396e+00 101 94 0
-2.163212e-01 -9.187224e-01 -4.156276e+00 158 126 43
-5.542695e-01 -1.177909e+00 -4.196519e+00 209 210 116
5.993249e-01 1.325581e+00 -4.468057e+00 117 111 2
-6.058576e-02 7.296365e-01 -3.943533e+00 218 226 88
7.200048e-01 -5.447336e-02 -3.966582e+00 115 141 6
-5.731832e-01 1.325476e-01 -4.364707e+00 138 153 13
-2.211926e-01 -7.252546e-02 -3.828048e+00 109 116 5
-8.486809e-02 -3.122962e-01 -3.724198e+00 125 137 14
-2.780892e-01 -6.692721e-01 -4.004329e+00 182 137 52
-5.058807e-03 -1.155284e+00 -4.035925e+00 195 140 58
-3.188597e-01 6.696607e-01 -4.282386e+00 186 196 73
-1.417470e-02 5.336799e-01 -4.078301e+00 175 184 59
-3.061310e-02 2.793088e-01 -4.062902e+00 194 205 79
-4.376833e-01 2.622692e-01 -4.392189e+00 119 117 12
-5.172244e-01 1.137475e-01 -4.289700e+00 129 123 12
1.081395e+00 -7.181162e-01 -4.190525e+00 161 129 46
1.016347e+00 -1.003249e+00 -4.245327e+00 157 130 52
-3.515135e-01 -6.579124e-01 -4.116957e+00 176 129 47
-2.184593e-01 -7.104499e-01 -3.950022e+00 164 126 44
8.933666e-01 -1.264199e+00 -4.149843e+00 175 177 90
-3.423497e-01 -7.758450e-01 -4.118851e+00 164 121 40
-2.867016e-01 -8.301473e-01 -4.134257e+00 158 122 41
-6.821374e-01 -7.614160e-01 -4.490644e+00 172 135 49
7.677089e-01 1.311235e+00 -4.525332e+00 217 223 123
-2.779896e-01 1.064864e+00 -4.338700e+00 224 235 105
-7.026299e-02 7.768968e-01 -4.129689e+00 200 209 64
-7.459146e-02 5.193465e-01 -4.170236e+00 179 190 62
-9.066202e-02 4.369596e-01 -4.214038e+00 193 207 84
-7.266261e-01 -6.800428e-01 -4.699148e+00 227 197 106
-1.591647e-01 -8.178636e-01 -3.980154e+00 133 106 18
-7.539184e-01 -8.055641e-01 -4.634666e+00 193 161 68
1.356066e+01 2.178144e+00 -1.026490e+01 209 211 112
-1.291496e-01 5.773423e-01 -4.191357e+00 193 204 74
-1.203219e-01 8.355145e-02 -4.137538e+00 82 105 0
3.498523e+00 -1.235898e+00 -3.917330e+00 200 206 112
-4.826014e-01 9.731580e-02 -4.245679e+00 115 115 0
-5.777852e-01 6.280783e-02 -4.302845e+00 121 122 2
-2.275988e-01 -3.968180e-02 -4.031188e+00 157 190 37
3.022370e+00 -1.249045e+00 -3.848999e+00 202 207 113
1.592240e-02 -1.194109e+00 -4.000098e+00 204 151 67
-6.240802e-01 -1.067858e+00 -4.511733e+00 210 194 106
6.707016e-01 1.382941e+00 -4.556019e+00 135 133 28
4.883326e-01 1.221865e+00 -4.480173e+00 111 114 0
2.122293e-01 6.353244e-01 -3.391795e+00 181 187 64
2.419711e+00 -1.156284e+00 -4.113773e+00 194 204 108
1.385885e+00 -1.193043e+00 -4.194812e+00 189 202 112
8.160135e-01 -1.306620e+00 -3.951428e+00 193 198 108
9.734967e-02 -1.289096e+00 -4.047832e+00 173 134 49
8.519909e+00 2.491646e+00 -1.057309e+01 207 213 115
-2.582547e-02 1.806774e+00 -9.500053e+00 224 229 139
-4.191885e-01 1.594554e+00 -8.904007e+00 226 230 143
4.508547e+00 -4.039785e-01 -5.594362e+00 204 208 113
-3.412206e-01 8.583776e-01 -4.248857e+00 208 218 85
2.777058e+00 -1.056204e+00 -4.335971e+00 212 218 118
1.758375e+00 -1.305406e+00 -4.037303e+00 206 214 119
-4.729716e-02 1.020720e+00 -4.220921e+00 236 246 111
2.936616e-03 5.696121e-01 -3.651358e+00 108 105 0
1.730675e-01 7.974348e-01 -3.642811e+00 215 223 86
1.591863e+01 3.475563e+00 -1.276142e+01 137 135 59
-4.443100e-01 -4.269932e-01 -3.949648e+00 214 161 67
-3.590532e-01 -7.765939e-01 -4.167121e+00 184 133 52
-4.842561e-02 -1.211379e+00 -4.085692e+00 215 157 75
1.444751e+01 3.647647e+00 -1.334414e+01 210 208 121
-3.101194e-01 -1.171012e+00 -4.170058e+00 225 192 107
1.663670e+00 5.092367e-01 -1.800581e+00 140 140 70
1.500146e+01 5.475586e+00 -1.745440e+01 129 117 18
1.327718e+01 4.222379e+00 -1.415996e+01 214 215 123
-4.147976e-01 5.864060e-01 -4.518060e+00 183 194 64
-5.759372e-01 2.486075e-01 -4.618908e+00 131 149 11
-4.083869e-01 -6.724173e-02 -4.031697e+00 152 181 29
-6.608571e-01 -4.524528e-02 -4.250728e+00 148 162 22
-6.820148e-01 -5.470662e-01 -4.318989e+00 181 135 42
1.005434e+01 8.093073e+00 -2.228001e+01 163 151 53
5.867588e-01 1.319363e+00 -4.494604e+00 109 114 0
8.987280e-02 1.064573e+00 -4.197853e+00 223 231 86
-4.627397e-02 6.553103e-01 -3.543427e+00 184 191 57
-4.469011e-02 5.445231e-01 -4.114511e+00 193 204 73
-4.469011e-02 5.445231e-01 -4.114511e+00 193 204 73
2.974639e-01 2.108024e-01 -3.874633e+00 104 78 0
-5.307093e-01 3.438945e-01 -4.503675e+00 137 159 23
-1.637480e-01 1.999046e-01 -4.268309e+00 103 113 17
-5.591888e-01 2.867965e-01 -4.612667e+00 144 166 26
-5.565613e-01 2.011691e-01 -4.543668e+00 125 152 9
-5.364504e-01 8.615103e-02 -4.249925e+00 200 199 83
-2.177038e-01 -6.853441e-02 -3.812837e+00 113 117 6
-4.756303e-01 -1.109000e-01 -4.093215e+00 135 166 23
-8.414316e-01 -2.666961e-01 -4.266693e+00 213 172 67
-5.861820e-01 -4.610665e-01 -5.652741e+00 192 185 91
-1.803946e-01 -7.538119e-01 -3.885821e+00 198 166 77
-2.853784e-01 -8.355014e-01 -4.132754e+00 167 131 46
-1.140737e-01 -9.249395e-01 -3.977534e+00 176 141 54
-1.462638e-01 -9.252986e-01 -4.017939e+00 180 144 60
8.182101e+00 6.672138e+00 -1.912386e+01 166 152 55
1.399114e+01 3.976097e+00 -1.405159e+01 216 220 123
1.357845e+01 3.980465e+00 -1.440304e+01 211 215 118
4.964218e-01 2.807783e+00 -8.360455e+00 178 164 57
-3.792567e-01 1.017620e+00 -4.373733e+00 214 223 108
-1.640137e-03 6.073837e-01 -3.533842e+00 123 127 7
-4.837729e-01 1.015931e-01 -4.257526e+00 120 124 1
-4.837729e-01 1.015931e-01 -4.257526e+00 120 124 1
-6.338827e-01 2.578698e-01 -5.380596e+00 227 220 122
5.010750e-01 -1.775764e-01 -3.802237e+00 100 112 2
-2.276037e-01 -5.003918e-02 -3.876295e+00 113 122 3
-6.211186e-01 1.623594e-02 -4.264840e+00 144 160 20
-5.305265e-01 -2.226452e-01 -5.468563e+00 155 128 33
-5.505848e-01 -2.533080e-01 -5.541997e+00 214 207 109
-1.000685e-01 -7.644313e-01 -3.882479e+00 161 124 35
1.196326e+00 -1.182541e+00 -4.353213e+00 169 176 86
-4.149777e-01 -9.730068e-01 -4.265379e+00 181 149 61
-3.546184e-01 -1.016942e+00 -4.259615e+00 168 136 46
-8.066982e-01 -9.311577e-01 -4.712599e+00 209 197 101
4.619530e-01 6.287226e-01 -3.473797e+00 208 215 108
-1.737038e-02 8.117297e-01 -4.090323e+00 236 245 94
-3.130104e-02 6.881405e-01 -3.836409e+00 161 168 30
5.439389e-01 3.355537e-01 -3.739201e+00 218 211 120
5.439389e-01 3.355537e-01 -3.739201e+00 218 211 120
1.105835e+00 -4.129780e-01 -3.948171e+00 154 133 42
3.902521e+00 -1.462908e+00 -2.996066e+00 203 215 117
3.090564e+00 -1.272972e+00 -2.512928e+00 203 215 117
6.157961e-01 -1.024927e+00 -4.084357e+00 119 99 12
-7.380875e-01 -6.536992e-01 -4.667086e+00 240 218 124
1.983559e-01 -1.016166e+00 -3.957252e+00 128 85 1
-7.358696e-01 -8.130473e-01 -4.649899e+00 193 164 70
-4.086552e-01 -1.042608e+00 -4.288434e+00 202 165 77
-3.432807e-01 -1.123259e+00 -4.336235e+00 167 142 53
-2.885344e-01 -1.146397e+00 -4.240735e+00 171 145 55
6.842147e+00 5.974679e+00 -1.574959e+01 161 149 51
1.210884e+01 3.707115e+00 -1.446417e+01 202 208 109
1.895859e-01 8.415452e-01 -3.401268e+00 198 210 74
1.854455e-01 8.409358e-01 -3.396757e+00 198 210 74
-4.502479e-01 9.537787e-01 -4.495375e+00 236 247 128
-5.941256e-01 1.103520e+00 -8.526381e+00 219 224 134
-2.246916e-01 8.331794e-02 -4.217545e+00 164 184 51
7.904035e-02 -1.297256e-01 -3.633212e+00 102 108 0
-5.517107e-01 7.460105e-02 -4.322184e+00 120 126 0
-6.381017e-01 6.337177e-02 -4.358397e+00 161 172 34
-8.102262e-01 -3.046388e-01 -4.222034e+00 176 128 25
-6.819048e-01 -3.478140e-01 -5.767377e+00 207 213 115
-1.389106e+00 -2.277212e-01 -6.135853e+00 226 233 139
-6.882100e-01 -4.758740e-01 -5.591292e+00 196 193 100
4.823226e-01 -9.781031e-01 -4.027997e+00 185 160 76
8.181604e+00 5.312283e+00 -1.697125e+01 169 157 51
1.121553e+01 1.464040e+00 -9.346323e+00 209 213 118
4.835789e-01 4.256494e-01 -3.680332e+00 100 86 0
1.098106e-01 3.902020e-01 -3.794883e+00 124 113 0
-4.955809e-01 1.242353e+00 -8.708961e+00 224 229 139
-4.955809e-01 1.242353e+00 -8.708961e+00 224 229 139
1.362014e-01 2.934935e-01 -3.934707e+00 188 181 50
1.018245e-01 -9.268908e-01 -3.916407e+00 180 133 51
-5.767082e-02 -9.019120e-01 -3.912313e+00 135 97 12
1.200305e+01 2.375849e+00 -1.103875e+01 203 207 112
-6.040531e-01 2.042178e-01 -5.309125e+00 185 158 60
1.111658e+00 -5.043094e-01 -3.995444e+00 146 116 28
3.366530e+00 -1.353846e+00 -3.774665e+00 210 216 120
-2.794925e+00 -5.823641e-01 -5.294720e+00 232 235 146
-1.111562e+00 -1.140096e+00 -4.588891e+00 214 223 130
8.751131e-01 -2.310577e-01 -3.927724e+00 119 127 16
3.980777e+00 -1.297913e+00 -4.047255e+00 201 207 111
-2.225850e-01 -1.462811e+00 -3.156316e+00 212 223 127
-2.935641e+00 -7.230909e-01 -4.711039e+00 237 240 151
3.438258e-01 5.334158e-01 -3.593501e+00 82 70 1
3.438258e-01 5.334158e-01 -3.593501e+00 82 70 1
4.992002e-02 5.644471e-01 -3.735873e+00 107 97 2
-7.456386e-01 -1.787489e-01 -4.290140e+00 215 182 74
1.557459e+00 -1.257302e+00 -4.249967e+00 185 200 105
5.211608e-01 1.523025e+00 -4.433623e+00 211 214 111
3.859242e-01 1.184780e+00 -4.259440e+00 70 67 0
-4.191755e-01 3.448902e-01 -4.971392e+00 129 142 11
1.935113e-01 8.205074e-01 -3.655072e+00 234 243 100
-5.574416e-01 1.289935e+00 -9.283528e+00 221 226 136
-1.102320e+00 -7.826909e-01 -4.815425e+00 221 231 135
-6.467318e-01 -7.137979e-01 -4.511931e+00 189 145 56
1.529475e+01 2.240906e+00 -1.052635e+01 129 119 33
-4.757660e-01 8.406462e-01 -4.436131e+00 206 217 89
-4.568267e-01 7.970402e-01 -4.419094e+00 205 214 85
-4.147065e-01 6.720889e-01 -4.741529e+00 208 222 101
-4.773658e-01 4.274188e-01 -4.537527e+00 197 215 79
1.600678e+01 2.520639e+00 -1.141808e+01 121 124 39
1.585974e+01 2.133903e+00 -1.077117e+01 95 80 1
7.923376e+00 6.278373e+00 -1.898192e+01 130 121 20
-4.955793e-01 4.914174e-01 -4.605640e+00 130 152 15
-5.276802e-01 4.780885e-01 -4.629858e+00 164 191 54
-2.548239e-01 3.459931e-01 -4.471834e+00 123 143 17
-5.242186e-01 1.192089e-01 -4.277098e+00 123 117 9
1.762514e-01 -1.056175e+00 -3.916355e+00 165 123 47
1.569958e+01 3.493380e+00 -1.261031e+01 138 152 66
-4.185306e-01 8.433309e-01 -4.366165e+00 202 211 82
3.590031e-02 5.009694e-01 -4.020681e+00 165 172 56
-1.391641e-02 3.220594e-01 -4.065964e+00 201 212 90
-5.341622e-01 4.772836e-01 -4.615651e+00 165 192 55
-6.548774e-01 2.665993e-02 -4.574769e+00 200 173 68
-7.024512e-01 -1.666773e-01 -4.243429e+00 199 159 65
-1.922148e-02 8.157267e-01 -4.098899e+00 230 239 96
4.891205e-01 4.299127e-01 -3.401624e+00 205 216 120
-1.499060e-01 3.529939e-01 -4.388712e+00 78 96 0
1.647567e+01 2.873634e+00 -1.210912e+01 125 132 52
