ply
format ascii 1.0
element face 0
property list uchar int vertex_indices
element vertex 922
property float x
property float y
property float z
property uchar diffuse_red
property uchar diffuse_green
property uchar diffuse_blue
end_header
1.382813e-01 -2.099691e-01 -3.755130e+00 93 112 0
8.487527e-02 -5.456459e-01 -3.668828e+00 167 116 35
7.303558e-01 -8.861601e-01 -4.172401e+00 137 110 31
-4.155942e-01 -6.430698e-01 -4.234782e+00 160 123 32
6.948636e-01 -9.108369e-01 -4.168362e+00 140 116 38
-5.099251e-01 -7.696900e-01 -4.355220e+00 196 165 75
-4.915706e-01 -8.140569e-01 -4.345157e+00 193 173 78
7.935764e-01 9.436361e-01 -4.460360e+00 209 217 113
7.855968e-01 9.026491e-01 -4.466531e+00 112 120 9
2.031964e-01 5.005096e-01 -3.421346e+00 131 140 21
-2.239057e-01 4.008242e-01 -4.339642e+00 142 154 30
-4.577459e-01 3.942979e-01 -4.573357e+00 200 216 92
-3.850065e-01 2.124395e-01 -4.357102e+00 114 120 3
-3.615974e-01 1.818522e-01 -4.314091e+00 118 117 15
5.922436e-01 -8.976589e-02 -3.945136e+00 109 131 5
6.778461e-01 -1.225604e-01 -3.961032e+00 106 133 4
-4.110875e-01 -3.089299e-02 -4.144522e+00 163 178 39
6.250928e-01 -2.341377e-01 -3.876015e+00 106 124 4
2.830231e-01 -2.085023e-01 -3.780257e+00 107 117 7
-3.160540e-01 -1.751783e-01 -3.998701e+00 152 170 32
5.176292e-02 -5.318415e-01 -3.674803e+00 172 122 37
4.814046e-01 -6.666157e-01 -3.937791e+00 123 87 10
-4.165678e-01 -6.794069e-01 -4.243759e+00 192 159 66
4.180293e-01 -9.236893e-01 -4.061481e+00 129 96 21
1.224782e-01 -1.043353e+00 -4.022750e+00 164 117 35
-3.900323e-02 1.162791e+00 -4.218880e+00 215 224 105
3.736401e-01 1.941666e-01 -3.768193e+00 114 87 12
-4.350933e-01 1.454861e-01 -4.385747e+00 145 157 32
-3.825847e-01 8.705934e-02 -4.267141e+00 146 157 26
6.134498e-01 -1.298635e-01 -3.896108e+00 124 149 21
4.934425e-01 -1.332519e-01 -3.856640e+00 103 126 2
4.061746e-01 -2.530981e-01 -3.800757e+00 103 115 11
1.011414e-01 -1.948337e-01 -3.742817e+00 100 115 1
2.607506e-01 -2.506915e-01 -3.772658e+00 92 118 0
1.156073e-01 -3.193049e-01 -3.716557e+00 115 135 8
-5.320926e-01 -3.489622e-01 -4.096919e+00 180 131 29
3.409158e-01 -7.248087e-01 -3.932788e+00 119 91 12
-4.979737e-01 -6.208735e-01 -4.325049e+00 144 106 17
4.341326e-01 -7.839881e-01 -4.017453e+00 107 90 8
-1.348216e-01 -7.190117e-01 -3.974969e+00 135 110 17
-4.350067e-01 -7.221162e-01 -4.304292e+00 145 119 25
-2.788940e-02 -7.428701e-01 -3.889960e+00 174 133 51
5.645750e-01 -9.648906e-01 -4.129728e+00 154 125 49
-2.887250e-01 -7.808621e-01 -4.188095e+00 141 121 26
4.917083e-01 -9.804414e-01 -4.132561e+00 156 121 47
3.763876e-01 -9.998896e-01 -4.081134e+00 159 121 45
-3.686490e-01 -9.282391e-01 -4.286378e+00 177 157 67
-3.003652e-01 -9.667843e-01 -4.269628e+00 179 155 67
7.670759e-02 -9.884005e-01 -3.982056e+00 168 112 35
-2.320558e-01 -9.960386e-01 -4.221087e+00 174 149 62
-1.043696e-01 -1.041087e+00 -4.112644e+00 174 144 58
3.077778e-01 6.078779e-01 -3.515479e+00 169 178 49
-1.457835e-01 6.987522e-01 -4.112570e+00 229 241 101
-1.839504e-01 4.808500e-01 -4.161564e+00 186 197 67
-1.006033e-01 4.366973e-01 -4.152765e+00 197 210 79
-1.451992e-01 4.279406e-01 -4.198828e+00 151 162 32
-4.685491e-01 4.598309e-01 -4.525608e+00 207 224 111
6.162758e-01 -3.551265e-02 -4.013948e+00 88 107 0
-3.999207e-01 4.351311e-02 -4.200048e+00 103 110 0
6.343131e-01 -1.927336e-01 -3.888582e+00 97 121 0
4.955212e-01 -1.832931e-01 -3.865550e+00 117 142 17
-2.090955e-01 -6.976749e-02 -3.960008e+00 158 174 32
3.185067e-01 -1.794327e-01 -3.805248e+00 85 88 1
-4.423088e-01 -9.098547e-02 -4.130012e+00 159 176 35
3.391592e-01 -2.733324e-01 -3.786878e+00 112 122 9
3.568053e-01 -3.253629e-01 -3.794902e+00 92 94 0
-4.655149e-01 -3.747837e-01 -4.051010e+00 178 133 32
-4.062783e-01 -3.957607e-01 -3.985922e+00 181 132 35
-3.408041e-01 -4.205411e-01 -3.949442e+00 177 127 30
-1.546872e-01 -4.917790e-01 -3.795087e+00 177 131 37
6.916690e-01 -7.796657e-01 -4.123548e+00 161 139 63
6.964176e-01 -7.854919e-01 -4.127015e+00 161 139 63
-2.918747e-01 -6.378616e-01 -4.105177e+00 174 134 46
-2.249912e-01 -6.366035e-01 -4.014319e+00 151 110 22
6.125728e-01 -8.815461e-01 -4.103962e+00 170 154 74
-3.174123e-01 -7.305472e-01 -4.210104e+00 192 161 70
5.192443e-01 -9.164396e-01 -4.146258e+00 94 72 3
-1.592931e-01 -7.606885e-01 -4.020549e+00 200 179 88
-5.753690e-02 -7.694625e-01 -3.939092e+00 134 95 12
-2.673925e-01 -8.187390e-01 -4.162132e+00 224 200 108
1.582287e-01 -8.896441e-01 -3.962936e+00 117 77 2
1.582287e-01 -8.896441e-01 -3.962936e+00 117 77 2
-2.518528e-01 -9.333224e-01 -4.221866e+00 193 159 72
1.971365e-01 -1.030025e+00 -4.047258e+00 165 118 43
-1.220178e-01 -9.814964e-01 -4.121527e+00 197 159 76
2.495678e-01 -1.070871e+00 -4.053674e+00 133 96 20
-1.663102e-01 -1.018571e+00 -4.158012e+00 172 144 57
1.620773e+00 6.399960e+00 -1.915437e+01 129 116 11
1.620773e+00 6.399960e+00 -1.915437e+01 129 116 11
4.484522e-01 1.150774e+00 -4.409729e+00 213 221 118
3.559506e-01 1.116279e+00 -4.429050e+00 104 115 2
2.669844e-01 5.417883e-01 -3.472761e+00 202 212 87
-4.323797e-01 4.237787e-01 -4.505683e+00 123 138 12
-1.907419e-01 2.383062e-01 -4.338015e+00 160 175 48
-1.907419e-01 2.383062e-01 -4.338015e+00 160 175 48
6.981602e-01 6.231093e-02 -4.087677e+00 115 131 21
3.669371e-01 -2.219392e-01 -3.811886e+00 89 87 0
5.611110e-01 -2.670851e-01 -3.843605e+00 99 112 0
4.486217e-01 -2.919752e-01 -3.833665e+00 77 92 0
-4.399558e-01 -1.457088e-01 -4.108085e+00 100 110 0
-1.856388e-01 -2.118401e-01 -3.853306e+00 152 162 35
-2.816410e-01 -2.237522e-01 -3.964261e+00 121 129 1
-1.630168e-01 -2.908619e-01 -3.878729e+00 125 126 14
7.653787e-01 -7.114568e-01 -4.123415e+00 150 114 38
5.822337e-01 -7.041829e-01 -3.999598e+00 105 72 0
-5.574658e-01 -6.351320e-01 -4.388720e+00 182 141 53
-5.566963e-01 -6.398892e-01 -4.392678e+00 182 141 53
-3.569614e-01 -6.841416e-01 -4.216222e+00 130 95 5
-4.856735e-01 -6.893063e-01 -4.352044e+00 209 183 88
-1.866462e-01 -9.366317e-01 -4.172396e+00 188 152 65
6.578011e-01 -1.121334e+00 -3.928941e+00 192 192 104
2.612418e-02 -1.036754e+00 -4.022462e+00 197 149 65
-5.689096e-02 9.969675e-01 -4.254025e+00 228 236 98
-1.265007e-01 6.323078e-01 -4.085364e+00 213 224 83
-2.330823e-01 6.245944e-01 -4.148389e+00 198 208 73
-2.691234e-01 4.697662e-01 -4.249543e+00 191 206 74
2.145393e-01 -2.094615e-01 -3.760988e+00 115 137 14
9.549783e-02 -2.737716e-01 -3.740708e+00 113 134 3
1.919813e-01 -3.390469e-01 -3.737403e+00 90 103 0
3.880368e-01 -8.450026e-01 -4.009756e+00 157 149 68
2.774654e-01 -8.351126e-01 -3.974959e+00 100 67 0
-4.440884e-01 -7.910724e-01 -4.360257e+00 223 204 109
7.586646e-01 -1.057633e+00 -4.190703e+00 166 161 83
-2.016794e-01 -8.339917e-01 -4.116188e+00 122 94 10
1.042806e-01 -1.088085e+00 -4.013421e+00 153 115 32
-1.467114e-01 -1.086581e+00 -4.081752e+00 210 196 107
-3.542359e-01 2.941821e-01 -4.391182e+00 218 230 91
-3.542359e-01 2.941821e-01 -4.391182e+00 218 230 91
-1.035786e-01 2.400023e-01 -4.246726e+00 85 98 0
-5.770627e-01 -7.113413e-01 -4.435736e+00 131 103 9
1.811529e-02 -9.348997e-01 -3.988433e+00 194 144 65
-2.195361e-01 3.416371e-01 -4.397589e+00 71 84 0
-3.163236e-01 1.610385e-01 -4.306613e+00 78 74 0
-6.515251e-02 -1.593914e-01 -3.714670e+00 205 197 33
1.409930e+00 -1.093434e+00 -4.105145e+00 207 216 123
-3.166759e-01 -4.738287e-02 -4.104733e+00 166 198 39
-1.372344e-02 -4.465532e-01 -3.709996e+00 199 166 69
4.203197e-01 -2.685838e-01 -3.885426e+00 93 107 5
-2.685721e-01 1.936368e-01 -4.196371e+00 81 77 5
9.655995e-02 -4.088723e-01 -3.701151e+00 148 132 31
5.340734e+00 7.824834e+00 -2.229682e+01 167 159 52
3.961521e+00 8.010660e+00 -2.279626e+01 170 158 48
7.150624e-01 -8.419562e-01 -4.159634e+00 162 139 59
-3.329669e-01 -7.923504e-01 -4.219968e+00 201 183 88
3.767818e-01 -5.192896e-01 -3.761908e+00 147 95 19
5.090034e-01 -7.397198e-01 -3.987822e+00 160 144 66
8.587132e-01 -9.266152e-01 -4.281926e+00 160 122 49
-1.696968e-01 -1.275071e-01 -3.829453e+00 82 85 0
1.728305e-01 5.370674e-01 -3.421226e+00 190 201 73
-5.173334e-01 -9.194724e-01 -4.418906e+00 213 196 104
7.519092e-02 -9.044427e-01 -3.957896e+00 161 112 33
4.064792e-01 -2.549593e-01 -3.806281e+00 103 115 11
3.558449e-01 1.115875e+00 -4.427985e+00 104 115 2
-2.732193e-01 3.412019e-01 -4.445354e+00 111 122 8
2.434818e-02 -1.134502e-01 -3.633460e+00 142 133 0
9.315714e-02 4.802257e-01 -3.428189e+00 165 173 44
8.804953e-01 6.147294e-01 -4.413446e+00 218 223 127
-6.018618e-01 -8.838418e-01 -4.485587e+00 209 190 92
-3.874110e-01 -8.111078e-01 -4.232422e+00 160 134 41
9.985933e+00 1.149168e+01 -3.776594e+01 175 158 50
2.925035e-01 -1.015309e+00 -4.064398e+00 158 119 42
1.870785e+00 -6.099146e-01 -5.035431e+00 202 207 115
1.730686e+00 -6.666018e-01 -4.891105e+00 205 215 119
-3.455570e-01 -1.206324e-02 -4.125466e+00 135 158 10
6.554803e+00 8.628950e+00 -2.395074e+01 190 183 78
7.204877e+00 8.849624e+00 -2.460028e+01 183 177 67
1.209151e-01 1.623683e-01 -3.902089e+00 161 154 27
1.594610e+00 6.538356e+00 -1.844865e+01 184 171 57
9.480671e+00 8.936281e+00 -2.642171e+01 175 162 58
2.822686e-01 5.280028e+00 -1.656263e+01 197 180 61
4.996740e-01 -1.395894e+00 -4.105482e+00 209 212 121
-7.147648e+00 1.430560e+01 -3.896936e+01 174 162 50
-5.332491e-01 3.812636e+00 -1.163232e+01 184 167 49
-4.047358e-01 -1.256978e-01 -4.087126e+00 145 161 26
-5.243881e-01 -5.316261e-01 -4.313675e+00 184 135 43
7.963033e-01 3.836505e-01 -4.350251e+00 211 217 108
-1.881674e-01 -6.933151e-01 -4.016052e+00 201 168 78
-3.572869e-03 1.104795e+00 -4.303375e+00 160 165 37
1.290440e+00 -1.157868e+00 -3.931923e+00 204 209 117
5.268626e-01 -1.073161e+00 -4.181484e+00 157 141 63
-2.895026e+00 3.358974e+00 -9.775782e+00 163 148 29
5.260364e-01 1.118158e+00 -4.406479e+00 125 130 30
-6.630025e+00 -6.388108e+00 2.240912e+01 181 163 51
8.630085e+00 8.285742e+00 -2.371009e+01 169 160 55
1.714245e-01 1.253996e+00 -4.190869e+00 215 221 121
1.769871e+00 -3.502370e+00 -8.847694e+00 213 215 131
9.350043e+00 8.899621e+00 -2.473958e+01 185 171 74
4.333175e-01 -3.541181e-01 -3.821843e+00 144 129 36
2.755570e-01 5.043187e+00 -1.642123e+01 193 179 60
7.502620e-01 9.254480e-01 -4.484339e+00 120 125 7
7.330910e-01 5.692574e-01 -4.370989e+00 94 100 0
-3.619836e-01 4.547388e-01 -4.411900e+00 183 195 69
-4.603105e-01 3.632816e-01 -4.546265e+00 180 200 75
-1.866714e-01 3.400748e-01 -4.440029e+00 89 106 5
-3.005393e-02 2.970367e-01 -4.088061e+00 193 204 76
-3.017045e-02 2.968469e-01 -4.088139e+00 193 204 76
-2.379157e-01 1.442843e-01 -4.262199e+00 119 111 19
-1.376666e-01 1.243732e-01 -4.206354e+00 123 114 17
1.174540e+00 -3.785411e-02 -4.885171e+00 169 144 57
-7.813827e-02 -1.377800e-01 -3.697417e+00 185 176 12
8.554351e-01 -4.162538e-01 -3.893906e+00 155 102 24
-5.329966e-01 -8.371974e-01 -4.436531e+00 193 163 73
-2.109151e-01 -9.183273e-01 -4.201757e+00 168 131 45
3.523661e-01 -8.765488e-01 -3.981462e+00 143 117 42
-6.791870e+00 5.693747e+00 -1.633605e+01 191 175 67
4.762558e-01 1.062630e+00 -4.380165e+00 110 112 6
3.450495e-01 9.947861e-01 -4.339888e+00 109 112 9
6.973849e-01 9.616895e-01 -4.472574e+00 107 110 5
7.122124e-01 8.002434e-01 -4.387836e+00 117 122 4
7.591368e-01 7.497351e-01 -4.388309e+00 119 126 14
7.854354e-01 7.101086e-01 -4.356683e+00 128 133 17
7.033702e-01 7.020487e-01 -4.413490e+00 86 88 0
8.106132e-01 6.870228e-01 -4.315340e+00 104 108 1
1.730529e-01 4.741867e-01 -3.437917e+00 148 157 37
2.021932e-01 4.567552e-01 -3.369227e+00 138 145 31
7.930202e-01 5.002909e-01 -4.397754e+00 108 111 8
7.309723e-01 4.206482e-01 -4.324167e+00 107 106 6
7.252127e-01 4.020059e-01 -4.336004e+00 108 104 4
-8.442794e-02 3.612919e-01 -4.137259e+00 185 198 67
-4.234081e-01 3.765432e-01 -4.515894e+00 163 180 48
3.148373e-01 2.443159e-01 -3.770224e+00 78 44 6
1.998539e-01 2.341531e-01 -3.922965e+00 108 82 1
-2.235395e-02 1.977520e-01 -4.138932e+00 203 216 82
6.618438e-01 1.799079e-01 -4.111570e+00 131 140 32
7.727211e-01 -2.187077e-02 -4.047837e+00 123 119 30
2.981507e-01 -7.674352e-02 -3.916356e+00 97 111 0
5.907747e-01 -8.855425e-02 -3.932027e+00 109 131 5
-5.824240e-01 -1.247494e-01 -4.232574e+00 183 173 62
3.401750e-01 -1.147731e-01 -3.805706e+00 110 113 23
3.163136e-01 -1.330551e-01 -3.850436e+00 97 102 1
3.576709e-01 -1.411417e-01 -3.811328e+00 86 81 0
5.711385e-01 -1.483009e-01 -3.903675e+00 112 138 3
4.630488e-01 -2.035084e-01 -3.843111e+00 99 118 1
-6.574956e-02 -2.057828e-01 -3.571006e+00 145 143 4
-6.471982e-01 -2.492782e-01 -4.199212e+00 204 172 73
-1.944551e-02 -2.334192e-01 -3.741299e+00 113 118 3
-5.577467e-01 -4.276762e-01 -4.161029e+00 195 146 51
3.370043e-01 -5.106532e-01 -3.746665e+00 163 111 35
-2.403136e-01 -5.796309e-01 -3.985242e+00 189 142 52
-3.811777e-01 -6.159975e-01 -4.195621e+00 179 134 46
-3.934629e-01 -7.164723e-01 -4.254510e+00 183 153 60
9.526106e-01 -7.226558e-01 -4.246458e+00 145 121 47
-3.342279e-01 -7.199943e-01 -4.206952e+00 190 156 66
-2.641815e-01 -7.458851e-01 -4.152709e+00 186 159 67
-1.032802e-01 -7.114040e-01 -3.952872e+00 185 155 65
3.100543e-01 -7.783851e-01 -3.944405e+00 130 99 23
5.473433e-01 -8.142153e-01 -4.057313e+00 140 122 46
6.416620e-01 -9.331811e-01 -4.145106e+00 148 125 47
-2.388887e+00 -9.907690e-01 -4.249229e+00 234 240 142
-5.298361e+00 3.452966e+00 -1.273926e+01 227 232 140
-1.019245e-01 1.166455e+00 -4.224298e+00 221 229 118
-9.297408e-02 1.131775e+00 -4.211211e+00 195 203 85
6.617329e-02 1.095041e+00 -4.503999e+00 217 225 113
4.994200e-01 1.037882e+00 -4.345095e+00 99 96 6
3.691308e-01 1.006603e+00 -4.362021e+00 108 111 6
5.299476e-01 9.582840e-01 -4.386067e+00 97 94 14
7.965086e-01 8.633703e-01 -4.435477e+00 212 221 114
7.059284e-01 8.570469e-01 -4.421587e+00 99 101 0
7.799384e-01 8.271279e-01 -4.433879e+00 113 120 8
6.905103e-01 7.911021e-01 -4.448852e+00 91 93 0
8.286418e-01 7.460646e-01 -4.397183e+00 138 146 46
8.742762e-01 7.411476e-01 -4.363406e+00 207 219 122
7.908477e-01 6.621325e-01 -4.322726e+00 103 105 5
7.143901e-01 6.315688e-01 -4.476558e+00 84 84 0
4.841033e-02 5.036756e-01 -3.431180e+00 202 212 79
7.838793e-01 5.787679e-01 -4.374101e+00 105 106 12
-2.188947e-01 5.559566e-01 -4.152280e+00 190 201 71
7.875786e-02 4.402177e-01 -3.483008e+00 150 153 37
8.388056e-01 4.946801e-01 -4.399899e+00 104 113 7
8.361765e-01 4.540730e-01 -4.363467e+00 211 222 118
7.704933e-01 4.438989e-01 -4.345584e+00 114 117 10
7.604000e-01 3.746562e-01 -4.386668e+00 104 104 2
7.654778e-01 3.369801e-01 -4.377500e+00 223 227 122
-1.129783e-01 2.991130e-01 -4.279072e+00 152 169 46
-1.382429e-01 2.095730e-01 -4.328370e+00 131 142 22
-1.732618e-01 1.878718e-01 -4.287542e+00 114 118 1
-3.064400e-01 1.907306e-01 -4.316499e+00 96 93 12
-4.701460e-01 1.754763e-01 -4.478603e+00 138 149 23
3.878405e-01 1.501866e-01 -3.745657e+00 98 77 0
1.052264e-01 9.412546e-02 -3.931966e+00 171 172 29
-1.940841e-01 7.233847e-02 -4.203131e+00 110 109 0
5.221559e-01 6.327449e-02 -4.015281e+00 109 96 17
-3.557684e-01 2.097914e-02 -4.141623e+00 163 181 38
-4.280602e-01 -5.749738e-04 -4.195517e+00 120 122 0
5.418663e-01 -3.224657e-02 -3.992695e+00 80 94 0
-4.885036e-01 -4.690508e-02 -4.154541e+00 148 166 33
6.255249e-01 -7.562448e-02 -3.961612e+00 122 143 22
2.455015e-01 -1.606811e-01 -3.834710e+00 100 118 0
2.440896e-01 -1.589145e-01 -3.822542e+00 100 118 0
5.650405e-01 -1.787867e-01 -3.876399e+00 116 143 9
1.414071e-01 -2.803333e-01 -3.735243e+00 105 127 0
-5.790337e-02 -3.092437e-01 -3.782819e+00 132 139 16
9.599541e-01 -4.417623e-01 -3.958875e+00 173 135 51
-6.039695e-01 -5.877348e-01 -4.414399e+00 142 110 15
-4.680648e-01 -5.568514e-01 -4.195668e+00 184 141 47
2.041276e-02 -5.490634e-01 -3.656996e+00 190 140 53
4.440663e-01 -6.345526e-01 -3.893962e+00 147 111 31
8.897195e-01 -6.843502e-01 -4.190256e+00 147 105 31
-2.662817e-01 -7.051757e-01 -4.125187e+00 163 126 37
-5.754806e-01 -7.546546e-01 -4.436121e+00 175 144 52
5.574912e-02 -6.350521e-01 -3.669399e+00 152 112 25
3.240637e-01 -6.813055e-01 -3.888760e+00 145 107 30
-6.347501e-01 -8.062686e-01 -4.536365e+00 183 159 61
6.986259e-01 -7.342445e-01 -4.096498e+00 130 98 21
-2.282297e-01 -7.381350e-01 -4.100819e+00 157 127 40
-2.888342e-01 -7.819811e-01 -4.191582e+00 141 121 26
-3.455525e-01 -8.500615e-01 -4.244150e+00 182 155 66
-3.941581e-01 -8.808800e-01 -4.341448e+00 193 162 72
-2.778196e-01 -8.835167e-01 -4.210065e+00 155 128 39
-2.204200e+00 -9.273765e-01 -4.425998e+00 234 237 146
4.296181e-01 -8.780676e-01 -4.039356e+00 164 150 71
-1.415187e-01 -9.353856e-01 -4.108293e+00 184 144 61
6.995837e-01 -9.795724e-01 -4.237484e+00 153 126 49
6.263268e-01 -9.430605e-01 -4.022839e+00 150 123 47
-7.123691e-02 -1.022764e+00 -4.125528e+00 195 154 72
2.443077e-01 -1.108489e+00 -4.058018e+00 170 145 70
-5.602539e+00 4.024627e+00 -1.373431e+01 222 227 135
5.767655e-01 1.101549e+00 -4.400905e+00 106 110 15
4.350510e-01 1.097913e+00 -4.406843e+00 107 108 6
6.312382e-01 1.091676e+00 -4.452284e+00 211 221 125
6.296784e-01 1.045017e+00 -4.469135e+00 94 98 12
1.299623e-02 9.530190e-01 -4.159531e+00 202 212 79
6.605335e-01 8.853636e-01 -4.395647e+00 104 106 4
2.319300e-01 6.744627e-01 -3.530850e+00 219 229 97
6.537426e-01 8.149375e-01 -4.445186e+00 101 102 8
3.094265e+00 1.469818e+00 -8.950264e+00 210 215 121
7.869767e-01 7.783919e-01 -4.406110e+00 212 220 112
7.839211e-01 7.769773e-01 -4.384130e+00 212 220 112
-3.035324e-01 7.222497e-01 -4.198525e+00 212 227 102
7.009666e-01 7.380032e-01 -4.415235e+00 107 109 10
-3.462214e-01 5.428383e-01 -4.218129e+00 197 210 85
1.514988e-01 3.582117e-01 -3.525263e+00 98 86 2
-4.321026e-01 4.220769e-01 -4.497457e+00 123 138 12
6.339759e-01 3.158529e-01 -4.168497e+00 194 183 76
1.230260e-01 2.816852e-01 -3.575081e+00 121 108 4
4.599843e-01 2.877379e-01 -3.791761e+00 124 87 8
2.851416e-01 2.551826e-01 -3.794162e+00 79 47 0
4.076169e-01 2.314679e-01 -3.742061e+00 83 54 0
7.607209e-01 2.195594e-01 -4.199672e+00 181 198 86
-3.227490e-01 2.303361e-01 -4.336181e+00 93 93 0
4.299299e-01 1.530328e-01 -3.789282e+00 122 105 16
1.506230e-01 9.699421e-02 -3.920323e+00 136 129 0
-1.261477e-01 9.586067e-02 -4.173398e+00 100 88 0
-2.915801e-01 8.088980e-02 -4.277007e+00 145 151 27
1.123591e+00 6.127865e-02 -4.811984e+00 153 137 50
1.200191e+00 4.539056e-02 -4.931197e+00 215 210 119
5.618876e-01 4.041656e-02 -4.056997e+00 80 76 0
1.363845e-01 3.484007e-02 -3.982673e+00 136 129 0
-2.258348e-01 2.481617e-02 -4.166381e+00 168 188 38
7.767472e-01 9.255438e-03 -4.060497e+00 86 85 0
3.148493e-01 5.799056e-03 -3.926617e+00 94 99 11
-3.146380e-01 -8.052153e-03 -4.127374e+00 129 163 2
7.351859e-01 -4.412393e-02 -4.006795e+00 92 96 0
-5.438215e-01 -5.080757e-02 -4.220267e+00 144 159 30
1.557966e+00 -3.927254e-01 -5.416702e+00 195 208 116
-1.088960e-01 -2.711442e-01 -3.828730e+00 135 147 18
7.148300e-01 -3.210842e-01 -4.118793e+00 147 121 29
1.501816e+00 -5.548002e-01 -5.102238e+00 184 197 109
1.649105e+00 -5.656830e-01 -5.132541e+00 198 205 111
1.521026e+00 -5.693387e-01 -4.986611e+00 196 207 118
-6.338989e-01 -6.145406e-01 -4.405927e+00 216 208 111
-6.414151e-01 -7.226951e-01 -4.463063e+00 204 196 95
1.567219e+00 -7.996440e-01 -4.726471e+00 202 207 115
2.666247e-02 -6.117459e-01 -3.664996e+00 188 140 53
4.182570e-01 -6.651309e-01 -3.893614e+00 135 103 26
3.824595e-01 -7.395586e-01 -3.931837e+00 155 132 52
3.107618e-02 -7.842126e-01 -3.885152e+00 175 132 53
4.747430e-01 -8.997179e-01 -4.079892e+00 83 62 0
-2.250064e+00 -9.877018e-01 -4.491022e+00 229 232 141
2.410928e-01 -9.781242e-01 -4.045260e+00 149 102 30
9.580988e-01 -1.042581e+00 -4.248443e+00 169 168 86
-2.668309e-02 -1.072720e+00 -4.063249e+00 178 139 54
6.873840e-01 -1.140087e+00 -3.844979e+00 198 201 112
6.062858e-02 1.121808e+00 -4.267442e+00 213 221 111
-1.326435e-01 8.615298e-01 -4.180605e+00 220 232 97
2.954920e+00 1.328393e+00 -8.683650e+00 215 223 130
-1.829908e-01 6.016866e-01 -4.219874e+00 206 216 79
3.671732e-01 5.200682e-01 -3.557362e+00 132 143 21
-1.238821e-01 3.637556e-01 -4.269964e+00 189 205 76
-2.950329e-01 2.674060e-01 -4.346293e+00 184 191 62
-5.218274e-01 2.267661e-01 -4.664478e+00 212 230 113
4.839322e-01 1.810142e-01 -3.807355e+00 97 86 0
4.839322e-01 1.810142e-01 -3.807355e+00 97 86 0
2.860287e-01 9.348373e-02 -3.880189e+00 112 94 16
3.974353e-01 9.294677e-02 -3.835762e+00 97 82 1
-2.323414e-01 7.027995e-02 -4.206006e+00 110 115 0
8.097682e-01 5.383877e-02 -4.149492e+00 115 120 18
6.051440e-01 2.420957e-02 -4.061835e+00 110 121 19
9.845810e-02 -1.045219e-01 -3.735338e+00 128 125 3
8.196941e-01 -2.734883e-01 -3.933733e+00 156 128 36
-7.370229e-01 -2.953159e-01 -4.260238e+00 223 222 120
1.605118e+00 -6.872283e-01 -4.748019e+00 196 204 109
2.779057e-01 -5.167259e-01 -3.615567e+00 148 92 17
7.090109e-01 -6.274649e-01 -4.016228e+00 122 83 4
7.048531e-01 -6.174440e-01 -3.978173e+00 122 83 4
-2.236744e-01 -6.348252e-01 -4.005698e+00 151 110 22
-1.861851e-01 -6.865852e-01 -3.984597e+00 201 168 78
6.575318e-01 -7.691598e-01 -4.106179e+00 156 134 58
-1.118794e-01 -7.640513e-01 -3.975861e+00 210 190 99
2.679193e-01 -7.769545e-01 -3.989172e+00 145 107 31
2.071949e-01 -7.665223e-01 -3.901026e+00 149 109 31
7.574448e-02 -7.840383e-01 -3.910338e+00 150 107 28
6.409951e-01 -8.323158e-01 -4.121897e+00 105 89 8
-3.414821e-03 -8.168477e-01 -3.930109e+00 139 96 16
-5.762121e-02 -8.419996e-01 -3.973513e+00 177 137 54
-4.480331e-01 -9.476710e-01 -4.354802e+00 211 199 109
-1.843774e+00 -9.201888e-01 -4.222248e+00 228 228 138
1.352956e+00 -9.743283e-01 -4.394253e+00 192 198 112
7.568337e-01 -9.271717e-01 -4.150903e+00 157 122 46
1.459792e+00 -1.051802e+00 -4.158745e+00 208 219 127
6.296593e-01 -1.056071e+00 -4.156970e+00 162 153 76
9.606056e-01 -1.098773e+00 -4.154842e+00 183 187 102
7.618147e-01 -1.087383e+00 -4.048457e+00 176 175 93
2.588352e-02 -1.145735e+00 -4.047127e+00 203 184 97
-1.992083e-01 -1.111983e+00 -3.905251e+00 209 206 111
7.631683e-01 9.934567e-01 -4.507058e+00 105 112 3
5.405902e-02 9.126271e-01 -4.178678e+00 231 241 108
5.405902e-02 9.126271e-01 -4.178678e+00 231 241 108
-2.355285e+00 1.000856e+00 -7.725270e+00 221 231 132
2.041872e+00 9.930407e-01 -8.201174e+00 208 219 123
3.081078e-01 4.401668e-01 -3.552152e+00 90 86 0
-4.596698e-01 2.771269e-01 -4.444284e+00 148 168 34
1.073941e-01 2.339006e-01 -3.650980e+00 109 94 0
5.405488e-01 1.351389e-01 -4.033783e+00 165 153 53
3.245528e-01 1.082633e-01 -3.768843e+00 64 39 0
7.022580e-01 -8.263807e-02 -3.980350e+00 121 143 17
-6.061648e-01 -1.656598e-01 -4.125755e+00 200 179 76
9.094893e-01 -2.126560e-01 -4.082725e+00 160 128 45
1.727057e+00 -6.078483e-01 -5.049765e+00 197 207 111
-1.946752e+00 -7.047455e-01 -4.783909e+00 237 238 144
-5.865027e-02 -5.996436e-01 -3.714691e+00 188 140 55
8.400460e-01 -7.791584e-01 -4.191004e+00 146 108 33
-5.114779e-01 -8.630303e-01 -4.399154e+00 172 151 58
-7.618269e-01 -9.160627e-01 -4.580027e+00 210 215 115
4.818652e-01 -8.401361e-01 -4.056136e+00 161 152 73
1.440633e+00 -9.993210e-01 -4.316264e+00 207 217 128
1.176967e+00 -1.059723e+00 -4.254184e+00 192 202 113
-6.821666e-01 -1.050279e+00 -4.222711e+00 221 225 131
-1.716587e+00 -1.143362e+00 -3.816231e+00 229 232 141
1.689207e+00 -1.365740e+00 -3.774031e+00 214 217 126
-3.605194e+00 2.301211e+00 -1.027445e+01 219 225 129
3.132605e-01 9.529846e-01 -4.275831e+00 95 94 11
3.132605e-01 9.529846e-01 -4.275831e+00 95 94 11
-7.295556e-02 8.082660e-01 -4.105740e+00 237 247 110
1.752626e-01 6.469961e-01 -3.446320e+00 189 199 68
-6.731206e-02 6.896281e-01 -3.996609e+00 198 209 71
8.714450e-01 5.680507e-01 -4.346657e+00 210 222 124
3.744753e-01 4.336516e-01 -3.602080e+00 149 146 46
-4.139653e-01 4.986520e-01 -4.319262e+00 213 225 113
-5.761159e-02 1.630450e-01 -4.201430e+00 205 216 77
6.518476e-01 1.395041e-01 -4.156035e+00 89 87 3
-3.038077e+00 1.128635e-01 -6.096671e+00 229 235 139
-3.098742e-01 4.702501e-02 -4.205672e+00 156 173 36
7.459563e-01 -9.609101e-03 -4.054693e+00 84 88 3
5.167665e-01 -8.720629e-02 -3.937691e+00 134 154 37
7.370947e-01 -1.924366e-01 -3.957890e+00 119 134 11
8.343006e-01 -2.067521e-01 -4.041919e+00 110 114 4
-1.350863e+00 -5.222050e-01 -5.077240e+00 219 225 127
1.601791e+00 -6.621557e-01 -5.103528e+00 194 204 114
1.547496e+00 -7.576905e-01 -4.886798e+00 197 206 113
-1.769074e+00 -7.279141e-01 -4.737075e+00 225 226 132
7.696361e-01 -7.051613e-01 -4.105010e+00 150 114 38
6.303364e-03 -6.383061e-01 -3.674773e+00 177 137 50
7.906405e-01 -8.259770e-01 -4.199102e+00 104 71 1
1.775338e+00 -1.084589e+00 -4.644855e+00 211 220 129
1.203787e+00 -1.104582e+00 -4.157758e+00 188 197 104
1.630721e+00 -1.140444e+00 -3.846114e+00 207 212 118
4.266438e-01 -1.181402e+00 -3.513539e+00 209 212 121
1.492495e+00 -1.214551e+00 -3.451328e+00 221 224 132
6.804983e-01 1.083662e+00 -4.482587e+00 211 221 124
-2.719733e+00 1.195470e+00 -7.575450e+00 222 227 133
3.910769e-01 5.888932e-01 -3.580818e+00 204 215 87
8.270801e-01 6.675295e-01 -4.398698e+00 99 101 1
2.567701e-01 3.145397e-01 -3.603684e+00 107 92 1
2.429218e+00 3.008549e-01 -6.791627e+00 218 223 131
8.773616e-01 1.322232e-01 -4.264197e+00 69 69 5
2.460193e-01 -8.127027e-02 -3.884266e+00 129 139 16
9.468458e-02 -3.681514e-01 -3.700496e+00 116 117 3
9.391166e-02 -5.537281e-01 -3.650213e+00 154 103 22
9.092324e-01 -7.337578e-01 -4.229673e+00 109 73 2
5.137492e-01 -7.781157e-01 -4.019722e+00 161 146 68
-4.262302e-01 -8.796917e-01 -4.369851e+00 179 148 58
1.063586e+00 -1.010391e+00 -4.375869e+00 187 192 108
1.332937e+00 -1.031779e+00 -4.266571e+00 189 199 110
-7.156694e-01 -1.144487e+00 -4.167853e+00 217 223 127
-2.601231e-03 1.094182e+00 -4.254039e+00 160 165 37
2.975218e-01 7.204197e-01 -3.608031e+00 219 228 94
-2.138346e-01 7.591136e-01 -4.178287e+00 230 241 110
-2.181766e-01 3.396531e-01 -4.375271e+00 71 84 0
6.476862e-01 -2.507504e-01 -3.905808e+00 103 117 0
-6.427792e-01 -3.258457e-01 -4.201681e+00 178 132 31
1.413441e+00 -6.424767e-01 -4.876062e+00 175 183 97
-7.161473e-01 -5.770475e-01 -4.519001e+00 227 230 130
1.629908e+00 -1.106854e+00 -4.267933e+00 204 213 120
5.951057e-01 2.487856e-01 -4.067683e+00 146 148 38
-5.838006e-01 1.366708e-01 -4.544409e+00 215 228 123
-1.880088e+00 -2.064977e-03 -5.833020e+00 226 234 135
4.599468e-01 7.837557e-03 -3.946324e+00 45 47 1
-4.961773e-01 -1.018878e-01 -4.172074e+00 135 152 19
-3.288701e-01 -3.238263e-01 -3.976094e+00 212 183 83
1.676388e+00 -5.213447e-01 -5.298612e+00 205 214 121
1.033441e+00 -6.489056e-01 -4.141500e+00 175 177 93
1.369216e+00 -8.405283e-01 -4.663094e+00 178 186 100
9.008170e-01 3.265359e-01 -4.633072e+00 212 228 129
9.008170e-01 3.265359e-01 -4.633072e+00 212 228 129
-3.136088e+00 4.315297e-01 -6.744468e+00 231 232 139
-8.112040e-04 2.235384e-01 -3.805334e+00 195 205 70
-2.725164e+00 5.609349e-02 -5.866716e+00 232 238 142
3.310895e-01 6.640974e-01 -3.848657e+00 170 179 50
4.886194e-01 9.064580e-01 -4.076274e+00 91 88 7
2.556335e-01 3.174275e-01 -3.548598e+00 104 88 0
1.270468e+00 -1.313455e-01 -4.442256e+00 208 219 123
-2.440378e+00 -2.867080e-01 -5.459431e+00 229 230 136
2.121598e-01 -8.913123e-01 -3.955534e+00 137 99 25
-2.445135e-01 -1.132941e+00 -3.622280e+00 215 218 127
3.294320e+00 6.085823e+00 -1.868315e+01 180 159 46
-1.396398e+00 4.638721e+00 -1.463396e+01 194 173 64
-1.654832e+00 5.132532e+00 -1.624553e+01 194 173 64
-7.939698e-01 4.456839e+00 -1.459017e+01 239 231 124
3.574636e-01 1.005876e+00 -4.394590e+00 113 115 5
7.591844e-02 2.133933e-01 -3.936929e+00 181 186 57
2.271981e-01 1.020230e-01 -3.946702e+00 127 114 2
7.867870e-01 -2.172283e-02 -4.086013e+00 114 114 16
-4.483577e-01 8.147508e-02 -4.276005e+00 143 152 22
6.691388e-02 -2.873990e-02 -3.860546e+00 145 129 7
8.206495e-01 -5.520589e-01 -3.935308e+00 166 125 43
9.360246e-01 6.630127e+00 -1.660886e+01 161 151 56
-8.459591e-02 1.137542e+00 -4.211920e+00 200 210 91
-6.658040e-02 1.116521e+00 -4.215204e+00 201 211 86
5.093022e-01 1.042421e+00 -4.379951e+00 106 102 11
-5.489311e-03 8.880262e-01 -4.171135e+00 229 240 102
2.983939e-02 5.042631e-01 -3.403965e+00 208 218 81
5.384358e-02 2.917032e-01 -3.895028e+00 185 192 64
-2.097315e-02 2.973822e-01 -4.106976e+00 195 205 80
-1.730162e-01 1.934075e-01 -4.308742e+00 119 127 8
3.389629e-01 -1.145320e-01 -3.806940e+00 109 111 8
1.049556e-01 -1.106494e-01 -3.758586e+00 128 128 5
3.618874e-01 -1.660928e-01 -3.804133e+00 162 157 65
3.618874e-01 -1.660928e-01 -3.804133e+00 162 157 65
-5.163849e-01 -1.874858e-02 -4.213094e+00 140 156 19
-5.298114e-01 -6.021658e-02 -4.115613e+00 140 157 21
-6.719540e-02 -2.078039e-01 -3.632479e+00 145 147 4
-1.607968e-01 -2.561487e-01 -3.895258e+00 121 140 20
8.729221e-01 -6.844312e-01 -4.190932e+00 152 115 34
8.919551e-01 -8.021234e-01 -4.224404e+00 163 131 55
-1.844786e-01 -6.319772e-01 -3.956783e+00 164 126 43
-1.315758e-01 -6.758169e-01 -3.945538e+00 187 155 70
6.660178e-01 -9.505942e-01 -4.120967e+00 162 136 55
6.582156e-01 -9.887393e-01 -4.222761e+00 161 135 54
9.434366e-01 -1.060036e+00 -4.174114e+00 184 188 101
6.773495e-01 -1.033010e+00 -4.180713e+00 162 145 61
-6.489687e-01 -8.542202e-01 -4.543862e+00 211 190 98
7.766074e-01 -1.131465e+00 -3.953385e+00 200 198 111
-1.008787e-01 1.168201e+00 -4.269900e+00 218 226 114
4.409005e-01 9.932272e-01 -4.373375e+00 98 99 3
-1.493368e-01 1.016010e+00 -4.351489e+00 208 218 95
8.083412e-01 8.702982e-01 -4.457634e+00 215 224 115
-1.350559e-01 8.904425e-01 -4.155731e+00 230 242 104
6.970942e-02 7.091659e-01 -3.601512e+00 212 224 82
-3.230435e-01 6.920719e-01 -4.272036e+00 224 235 105
-3.601296e-01 6.585652e-01 -4.226927e+00 209 219 95
7.073037e-02 4.356267e-01 -3.462626e+00 159 164 46
-8.545057e-02 3.598472e-01 -4.178671e+00 179 194 65
8.234085e-01 1.778427e-01 -4.222272e+00 177 187 76
-1.220742e-01 3.031869e-01 -4.290371e+00 150 169 44
-4.230675e-01 3.049418e-01 -4.446944e+00 154 173 38
-2.435163e-02 1.923878e-01 -4.043775e+00 199 211 79
1.413648e-01 9.763713e-02 -3.893967e+00 147 143 10
1.013712e-01 9.418393e-02 -3.896690e+00 167 162 20
-2.298506e-01 1.533398e-01 -4.317753e+00 124 125 19
6.688356e-01 -1.193755e-01 -3.929856e+00 116 139 9
-5.482894e-01 -4.746064e-02 -4.265473e+00 153 158 30
-3.700914e-01 -1.236031e-01 -4.024466e+00 145 177 21
-5.703276e-01 -3.693282e-01 -4.138611e+00 204 149 49
-5.017251e-01 -4.941505e-01 -4.134205e+00 182 131 42
-5.894421e-01 -5.468676e-01 -4.377374e+00 180 135 50
-2.133042e-01 -6.000987e-01 -3.975276e+00 176 134 48
-1.421197e-01 -6.429150e-01 -3.930701e+00 160 123 40
6.887949e-01 -8.681405e-01 -4.158840e+00 184 162 77
3.214353e-01 -7.776956e-01 -3.986731e+00 144 102 26
4.881848e-01 -8.542292e-01 -4.057363e+00 177 162 79
7.811833e-01 -9.631839e-01 -4.262227e+00 163 133 53
-3.885495e-01 -7.269011e-01 -4.283451e+00 202 175 90
3.630826e-01 -1.080136e+00 -4.079043e+00 178 153 69
-2.654108e-01 -1.016262e+00 -4.217403e+00 200 184 96
3.717728e-01 -1.112268e+00 -3.955338e+00 192 182 93
-2.991804e-01 -1.028796e+00 -4.194137e+00 205 194 104
5.571444e+00 7.450626e+00 -2.188214e+01 181 166 57
7.057642e+00 5.754632e+00 -1.828835e+01 190 173 65
-1.667666e+00 1.018005e+00 -2.740093e+00 201 186 65
6.060302e-01 1.274860e+00 -4.529698e+00 209 215 115
-1.670042e-01 8.045082e-01 -4.114399e+00 231 243 106
3.103191e-01 6.071705e-01 -3.523936e+00 182 193 56
-8.011162e-02 6.387063e-01 -4.086349e+00 222 233 90
-8.651609e-02 6.356001e-01 -4.063981e+00 222 233 90
-4.103626e-03 5.385246e-01 -3.548853e+00 218 226 88
-3.493408e-01 5.557907e-01 -4.340399e+00 188 199 71
1.517486e-01 3.644900e-01 -3.563205e+00 102 92 3
3.454623e-02 3.757399e-01 -4.024917e+00 183 189 60
4.889494e-01 1.837902e-01 -3.826403e+00 98 87 0
-7.132987e-02 2.790853e-01 -4.159345e+00 154 168 45
-7.132987e-02 2.790853e-01 -4.159345e+00 154 168 45
3.296960e-02 2.275467e-01 -3.968877e+00 181 188 56
2.555294e-01 1.502051e-01 -3.755906e+00 104 73 8
9.013068e-01 8.917794e-02 -4.208482e+00 212 220 131
-1.373861e-01 1.966442e-01 -4.252137e+00 120 136 12
6.031361e-01 2.474009e-02 -4.058762e+00 117 127 21
-3.917193e-01 1.395530e-01 -4.327363e+00 96 96 0
2.749875e+00 -5.525595e-01 -5.222746e+00 211 214 123
-1.073636e-01 -2.295865e-01 -3.708950e+00 117 127 2
-1.077293e-01 -2.693099e-01 -3.812288e+00 129 147 23
-6.115776e-01 -3.597883e-01 -4.154185e+00 206 151 58
8.304528e-01 -7.927943e-01 -4.198301e+00 154 117 39
1.511461e+00 -9.848449e-01 -4.263856e+00 210 213 122
9.375950e-01 -8.816481e-01 -4.287851e+00 152 130 54
-6.076395e-01 -5.889722e-01 -4.397710e+00 135 98 9
-3.826038e-01 -6.099074e-01 -4.167987e+00 176 135 49
6.383454e-01 -8.347901e-01 -4.124642e+00 113 93 7
6.383454e-01 -8.347901e-01 -4.124642e+00 113 93 7
-2.633054e-01 -6.508952e-01 -4.020804e+00 178 131 49
-8.331811e-02 -6.856601e-01 -3.877412e+00 153 117 32
-1.362573e-01 -7.176401e-01 -3.971943e+00 131 104 17
1.321808e-01 -8.552537e-01 -3.989281e+00 160 115 37
6.429668e-01 -1.010399e+00 -4.182692e+00 135 113 30
-2.844530e-02 -8.532394e-01 -4.039915e+00 177 132 51
9.472320e-01 -1.080321e+00 -4.097653e+00 189 192 103
-5.426997e-01 -8.223354e-01 -4.437837e+00 201 157 72
3.342210e-01 -9.512192e-01 -4.045564e+00 161 115 38
-3.934988e-01 -8.731279e-01 -4.295157e+00 196 159 70
-3.263977e-01 -9.178957e-01 -4.283184e+00 199 164 76
3.489952e-01 -1.040757e+00 -4.055840e+00 149 117 35
-4.007012e-01 -9.335681e-01 -4.150773e+00 206 191 100
-1.285906e-02 -9.960866e-01 -4.017105e+00 199 142 61
-7.899190e-02 -1.004517e+00 -4.059846e+00 202 154 72
1.433331e+00 6.653028e+00 -1.937999e+01 197 182 66
4.011525e-03 1.134856e+00 -4.226524e+00 160 168 56
4.011525e-03 1.134856e+00 -4.226524e+00 160 168 56
2.956838e-01 1.065641e+00 -4.452747e+00 218 225 111
4.229229e+00 1.135355e+00 -8.415313e+00 205 211 115
-1.366548e-01 7.531491e-01 -4.110524e+00 213 225 87
-6.741690e-02 5.380588e-01 -3.968024e+00 229 238 100
-7.571026e-02 3.266970e-01 -4.113157e+00 201 213 85
7.152038e-01 -8.328770e-02 -4.009275e+00 126 144 21
-2.338731e-01 7.101002e-02 -4.203056e+00 109 112 0
-9.142389e-02 8.432871e-03 -3.743710e+00 173 164 3
-2.063789e-01 -1.969314e-02 -4.128326e+00 112 142 0
-2.100893e-01 -1.980568e-02 -4.107206e+00 112 142 0
7.295909e-01 -2.026637e-01 -3.915188e+00 131 141 17
-4.861826e-01 5.235709e-03 -4.229771e+00 121 129 10
-4.556008e-02 -9.213548e-02 -3.724548e+00 164 147 0
-4.886417e-01 -7.225249e-02 -4.156595e+00 148 166 33
-5.863351e-01 -7.168966e-02 -4.326322e+00 204 183 76
-2.870738e-01 -4.364845e-01 -3.894464e+00 175 124 33
3.978984e-01 -6.129687e-01 -3.971545e+00 177 122 42
8.972350e-01 -7.284706e-01 -4.203696e+00 112 83 0
-2.186055e-01 -5.203968e-01 -3.947736e+00 204 151 57
1.476400e-01 -5.954739e-01 -3.686022e+00 181 131 46
-4.774200e-01 -5.711897e-01 -4.314154e+00 185 135 51
8.386758e-01 -9.950231e-01 -4.286201e+00 134 109 27
-1.113040e-01 -7.544678e-01 -3.937121e+00 215 188 101
2.668854e-02 -7.795488e-01 -3.861902e+00 182 129 49
-3.300294e-01 -7.944782e-01 -4.261150e+00 202 181 90
-5.834553e-01 -7.762203e-01 -4.455582e+00 195 151 63
2.150218e-01 -8.996245e-01 -3.950260e+00 164 117 39
5.480996e-01 -1.034256e+00 -4.181962e+00 137 116 34
-5.775501e-01 -8.461127e-01 -4.445026e+00 166 132 43
4.525707e-01 -1.046961e+00 -4.142269e+00 140 114 33
6.997412e-01 -1.141212e+00 -3.869624e+00 204 200 111
-5.464872e-01 -9.999686e-01 -4.286575e+00 208 207 114
1.783098e-01 6.518764e-01 -3.483920e+00 193 206 66
1.519276e-01 4.775497e-01 -3.424056e+00 176 183 58
2.155848e-01 3.831208e-01 -3.575296e+00 50 34 0
3.410152e+00 2.316646e-01 -6.627359e+00 211 215 121
4.191328e-01 2.278045e-01 -3.631293e+00 181 170 72
-3.059982e-01 5.051223e-02 -4.228325e+00 159 179 38
-1.405570e-01 -2.142232e-02 -3.829922e+00 220 227 95
3.409922e+00 -6.539234e-01 -5.116951e+00 210 213 122
2.173738e-01 -2.089907e-01 -3.768343e+00 119 142 9
1.437272e-01 -5.525206e-01 -3.691412e+00 154 102 18
6.169406e-01 -7.204160e-01 -4.087336e+00 116 80 0
-4.136143e-01 -5.428617e-01 -4.182295e+00 181 131 45
7.964431e-01 -8.288405e-01 -4.195326e+00 113 82 3
9.114691e-02 -7.373851e-01 -3.855253e+00 164 116 34
-3.432697e-01 -7.557345e-01 -4.198260e+00 199 174 84
6.950815e-01 -1.122994e+00 -4.168495e+00 182 178 89
1.252503e+00 -1.214480e+00 -3.782951e+00 216 220 126
5.494160e-01 -1.149147e+00 -4.045376e+00 189 183 97
-1.957284e+00 -7.759570e-01 -4.709922e+00 229 229 139
-1.873087e-01 9.070437e-01 -4.253843e+00 230 245 118
-5.977640e-02 7.030839e-01 -4.088641e+00 202 211 69
3.595582e-03 4.716184e-01 -3.475026e+00 210 220 89
-1.301803e-01 5.217210e-01 -4.106405e+00 164 175 38
-1.184617e-01 3.562288e-01 -4.234656e+00 194 211 79
8.637619e-01 1.392201e-01 -4.216507e+00 74 73 6
-4.704989e-01 2.585296e-01 -4.430347e+00 129 153 15
3.992931e+00 -4.305517e-01 -5.543114e+00 208 213 119
-1.195214e-01 9.421437e-02 -4.172328e+00 87 98 0
5.128213e-01 -8.733430e-02 -3.929713e+00 140 161 34
-4.510805e-01 -7.831983e-01 -4.316705e+00 217 207 112
1.801579e-01 1.853127e-01 -3.797102e+00 104 82 0
-2.443340e+00 7.430179e-01 -7.710872e+00 228 233 141
8.214953e-01 -3.281701e-02 -4.125049e+00 109 106 11
1.041299e-01 -1.555286e-01 -3.733107e+00 88 97 1
-1.676996e-01 -1.279010e-01 -3.817413e+00 78 79 0
2.829581e+00 -7.086564e-01 -5.080241e+00 214 217 126
1.125906e+00 -3.996048e-01 -4.181427e+00 208 209 119
2.297904e+00 -9.099117e-01 -4.565112e+00 211 214 123
1.100578e+00 -7.159945e-01 -4.110528e+00 185 189 102
-1.941078e-01 -8.423936e-01 -4.147600e+00 124 98 13
-2.405563e+00 -6.049860e-01 -5.077445e+00 228 233 139
-2.476787e+00 -7.002711e-01 -5.005031e+00 237 243 147
-2.476787e+00 -7.002711e-01 -5.005031e+00 237 243 147
-1.607193e+00 -8.414351e-01 -4.745298e+00 228 233 141
7.056733e-01 -1.176946e+00 -3.768111e+00 217 218 125
-1.670737e+00 -8.758117e-01 -4.463303e+00 220 223 132
4.538066e-02 3.981037e-01 -3.703717e+00 114 107 0
-4.446311e-01 5.481504e-01 -4.428655e+00 215 229 117
-1.604200e+00 -2.491208e-02 -5.789809e+00 230 234 140
9.118412e-01 -4.569202e-01 -3.964176e+00 148 106 24
-6.681919e-01 -3.045253e-01 -4.049070e+00 171 125 27
-1.654675e-01 -3.900216e-01 -3.824676e+00 201 173 74
1.041121e+00 -6.784066e-01 -4.265977e+00 186 184 99
-1.758310e+00 -4.260604e-01 -5.359301e+00 228 231 140
1.296702e+00 -1.081464e+00 -4.243020e+00 194 198 111
1.059860e+00 -1.221911e+00 -3.817210e+00 216 217 124
7.298112e-01 -1.916511e-01 -3.857476e+00 125 136 16
3.792662e-01 7.340831e-01 -4.264783e+00 231 242 104
-5.007441e-02 2.128446e-01 -3.789443e+00 195 202 72
-1.265353e+00 -3.752021e-01 -5.619191e+00 220 225 131
3.685769e-01 2.807634e-01 -3.940633e+00 90 64 0
-6.949494e-03 1.064385e+00 -5.061562e+00 229 245 110
1.355752e+00 5.448175e-01 -3.963619e+00 206 216 119
1.355752e+00 5.448175e-01 -3.963619e+00 206 216 119
1.540942e+00 6.143947e+00 -1.917336e+01 182 164 49
2.324419e+00 5.304140e+00 -1.688822e+01 185 169 56
-1.884257e-01 1.465451e-01 -4.257178e+00 106 98 0
-3.620866e-01 -3.973974e-01 -3.968974e+00 198 152 56
6.356311e-01 5.656403e+00 -1.723861e+01 183 166 50
-1.134407e-01 5.771540e-01 -4.088378e+00 204 212 75
-3.100132e-02 2.966503e-01 -4.078036e+00 189 204 79
-3.066933e-01 1.941016e-01 -4.311440e+00 94 90 5
-4.652501e-01 -6.340083e-02 -4.132480e+00 136 148 14
3.357447e-01 -6.931509e-01 -3.945086e+00 160 117 33
-4.492482e-01 -6.193427e-01 -4.249481e+00 174 137 46
8.760776e-01 -1.020276e+00 -4.290316e+00 159 143 62
-3.510881e-02 -1.027730e+00 -4.082703e+00 193 143 54
4.541438e+00 5.630150e+00 -1.781097e+01 195 181 74
4.541438e+00 5.630150e+00 -1.781097e+01 195 181 74
3.495542e+00 4.626545e+00 -1.544960e+01 182 168 61
5.881935e-01 1.137608e+00 -4.370441e+00 219 225 129
7.603100e-01 1.755259e-01 -4.192181e+00 143 158 40
6.633168e-01 -2.963803e-01 -3.860066e+00 154 128 28
2.984541e-01 -8.934196e-01 -3.981628e+00 157 115 35
5.360412e-01 -1.121765e+00 -3.895126e+00 192 192 102
7.943180e-01 1.031892e+00 -4.498076e+00 217 223 123
2.985612e-03 -1.109063e+00 -3.960267e+00 206 186 96
1.443184e+00 -1.004034e+00 -4.334974e+00 206 215 124
2.403500e-01 -7.571270e-01 -3.918966e+00 156 115 33
2.429527e+00 6.421649e+00 -1.926844e+01 143 124 20
2.429527e+00 6.421649e+00 -1.926844e+01 143 124 20
-1.912368e+00 5.581982e+00 -1.703028e+01 198 180 70
1.793644e-01 6.513442e-01 -3.483929e+00 197 207 74
-2.345925e+00 8.812571e-01 -7.913624e+00 221 226 134
-5.513312e-01 -9.943973e-01 -4.284879e+00 205 205 109
-2.383984e+00 -9.698959e-01 -4.326964e+00 233 243 147
2.236954e+00 5.477970e+00 -1.719916e+01 202 185 70
-3.108736e-01 8.408919e-01 -4.404094e+00 214 224 119
1.342149e+00 -1.037232e+00 -4.297206e+00 187 195 109
1.806098e+00 -1.202245e+00 -3.542899e+00 213 216 127
4.500184e-01 -1.049505e+00 -3.981522e+00 177 165 79
4.377398e+00 1.661325e+00 -9.512397e+00 209 215 119
-3.772626e-02 4.648729e-01 -3.663348e+00 149 155 25
-1.299469e-02 -2.680308e-01 -3.705220e+00 99 118 0
2.800459e-01 5.921291e-01 -3.522505e+00 177 188 57
-1.430602e-01 5.670374e-01 -4.093138e+00 185 196 58
2.114644e-01 5.257487e-01 -3.456298e+00 176 187 60
6.574974e-01 2.187238e-01 -4.111027e+00 148 160 52
4.441554e-02 -1.159947e-02 -3.752508e+00 139 121 11
6.862200e-02 -7.334945e-02 -3.707619e+00 146 128 0
9.911462e-01 -4.149594e-01 -3.950527e+00 175 158 80
1.730927e-01 -5.376024e-01 -3.720362e+00 163 110 34
-2.247369e-01 -8.817969e-01 -4.150965e+00 154 122 35
2.544191e+00 5.648422e+00 -1.779462e+01 200 184 66
5.807604e-01 9.237315e-01 -4.386391e+00 77 75 6
7.359771e-01 8.680334e-01 -4.433207e+00 133 137 14
7.890389e-01 8.615576e-01 -4.433498e+00 211 219 118
7.890389e-01 8.615576e-01 -4.433498e+00 211 219 118
2.882878e-01 4.999179e-01 -3.497795e+00 153 161 43
-1.328251e-01 1.840186e-01 -4.240063e+00 126 137 17
-1.915140e-01 1.213898e-01 -4.244465e+00 188 176 75
5.741548e-01 1.619693e-01 -3.940851e+00 118 105 7
7.596340e-01 1.341502e-01 -4.252761e+00 109 121 20
5.551734e-01 1.261327e-01 -3.949404e+00 120 105 12
8.405812e-01 -4.405658e-03 -4.153134e+00 119 119 26
-5.787832e-01 -8.374851e-02 -4.253899e+00 187 181 65
-2.552405e-01 -5.836351e-02 -4.061419e+00 143 173 14
-7.530225e-02 -5.661376e-01 -3.762809e+00 187 137 50
-2.616099e-01 -7.341055e-01 -4.114984e+00 185 154 63
1.438121e-01 -1.010317e+00 -4.051696e+00 163 107 32
-5.408883e+00 3.397735e+00 -1.287547e+01 232 237 145
1.603175e-01 9.048526e-01 -4.148285e+00 199 209 86
5.260142e-01 8.919520e-01 -4.338039e+00 104 106 7
1.808075e-01 8.617203e-01 -4.191352e+00 179 188 61
2.570511e-01 7.049317e-01 -3.492955e+00 216 226 95
6.973089e-01 7.356822e-01 -4.402732e+00 106 109 9
2.264824e-01 5.448962e-01 -3.414650e+00 178 189 61
5.717852e-01 4.951318e-01 -4.059155e+00 141 116 23
2.010854e-01 4.652669e-01 -3.447090e+00 139 141 29
5.067336e-01 4.367277e-01 -3.843112e+00 142 100 22
8.110246e-01 4.253407e-01 -4.374855e+00 100 107 5
-1.718526e-01 1.920884e-01 -4.263245e+00 109 116 1
-2.621453e-02 1.929117e-01 -4.005506e+00 202 214 78
7.748237e-02 1.356899e-01 -3.846111e+00 164 161 26
1.054890e-01 9.307781e-02 -3.938516e+00 172 169 37
5.140427e-01 6.717993e-02 -3.947884e+00 108 100 18
-3.353447e-01 -1.294669e-01 -4.018516e+00 129 161 9
8.063843e-01 -1.017327e-01 -4.005858e+00 106 113 8
-6.751031e-01 -2.212776e-01 -4.212610e+00 199 185 80
8.395689e-02 -8.950944e-01 -3.985704e+00 162 109 29
5.879940e-01 -9.189204e-01 -4.130773e+00 141 114 40
9.497622e-01 -9.795422e-01 -4.191405e+00 166 167 87
1.364303e+00 -1.056128e+00 -4.213187e+00 196 209 121
1.449367e-02 -1.068405e+00 -3.978760e+00 183 146 57
3.603219e-01 6.464551e-01 -3.596656e+00 166 178 50
7.048627e-01 6.671100e-01 -4.530326e+00 92 92 2
-1.023239e-01 4.433580e-01 -4.109478e+00 198 209 81
6.412084e-01 3.195867e-01 -4.213388e+00 190 177 75
4.611564e-01 2.829582e-01 -3.823842e+00 117 85 12
5.754027e-01 2.398776e-01 -4.053502e+00 148 140 39
8.252722e-01 1.952532e-01 -4.205531e+00 185 196 100
5.482723e-01 1.454691e-01 -4.007369e+00 161 146 51
1.498663e-01 8.836610e-02 -3.999574e+00 139 129 9
8.836530e-02 2.866445e-02 -3.842910e+00 141 136 10
-5.980315e-01 -1.849613e-01 -4.243262e+00 199 169 66
8.592356e-01 -1.656556e-01 -4.196072e+00 124 132 28
8.592356e-01 -1.656556e-01 -4.196072e+00 124 132 28
7.509283e-01 -2.818534e-01 -3.899625e+00 149 125 36
-6.975852e-01 -7.355475e-01 -4.450147e+00 208 208 110
-3.137812e-01 -1.030864e+00 -4.327554e+00 201 189 95
8.051177e-01 -1.003358e+00 -4.201572e+00 155 141 66
1.057543e+00 -1.040267e+00 -4.075039e+00 186 196 109
-2.970279e+00 2.640926e+00 -1.120514e+01 216 226 127
5.000175e-01 1.003931e+00 -4.373326e+00 61 60 0
1.140004e-02 9.574154e-01 -4.208654e+00 199 212 71
5.999823e-01 8.693871e-01 -4.370693e+00 63 60 0
7.048646e-01 6.068371e-01 -4.232045e+00 118 120 10
-3.566016e-01 5.588173e-01 -4.328130e+00 200 210 88
3.588102e-01 5.159629e-01 -3.496290e+00 140 146 35
5.507098e-01 3.371839e-01 -3.983640e+00 128 95 10
5.079004e-01 2.970922e-01 -3.838967e+00 157 139 50
4.642296e-01 2.325690e-01 -3.817563e+00 144 127 43
4.642296e-01 2.325690e-01 -3.817563e+00 144 127 43
1.032981e+00 1.731518e-01 -4.791499e+00 206 214 127
4.828047e-01 1.821655e-01 -3.830519e+00 92 75 0
4.398907e-01 1.361427e-01 -3.840979e+00 123 106 18
9.757520e-01 7.983180e-02 -4.435422e+00 152 133 49
-8.769903e-02 6.895983e-02 -4.033968e+00 217 219 72
-1.457129e-01 -2.331371e-02 -3.800546e+00 220 228 83
7.982577e-02 -1.756460e-02 -3.838115e+00 84 68 0
-1.105008e-01 -1.273888e-01 -3.743841e+00 183 174 31
-1.401111e-01 -1.779150e-01 -3.779165e+00 97 105 0
-3.991000e-01 -3.816176e-01 -3.935940e+00 181 134 38
-1.100315e-01 -7.528539e-01 -3.942906e+00 209 182 95
1.076527e+00 -9.141625e-01 -4.281075e+00 182 186 104
-1.257690e+00 -1.034013e+00 -3.986287e+00 225 235 138
-1.193895e+00 -1.072489e+00 -3.870596e+00 226 232 134
6.718980e-01 -1.085334e+00 -4.022224e+00 174 174 88
-3.949857e+00 3.423444e+00 -1.305936e+01 220 226 130
5.428766e-01 1.100991e+00 -4.315011e+00 114 117 19
5.329401e-02 9.035148e-01 -4.139823e+00 233 245 111
-3.053946e+00 1.114347e+00 -8.184264e+00 227 233 135
1.182165e-01 8.756664e-01 -4.094065e+00 195 205 73
5.365898e-01 8.292924e-01 -4.313228e+00 124 127 13
-1.423620e-01 7.564216e-01 -4.122796e+00 214 226 89
-3.350520e+00 7.745048e-01 -7.710795e+00 232 236 142
5.154645e-01 4.967055e-01 -4.001806e+00 167 143 50
8.524974e-01 3.354668e-01 -4.688425e+00 212 220 119
1.101016e-01 2.301242e-01 -3.658939e+00 110 100 0
3.340404e-01 9.423911e-02 -3.869515e+00 58 42 0
1.923022e-01 7.871257e-02 -3.915989e+00 153 145 38
1.923022e-01 7.871257e-02 -3.915989e+00 153 145 38
-5.191244e-01 -1.159844e-01 -4.157081e+00 119 124 1
9.419849e-01 -1.215037e-01 -4.292473e+00 146 126 39
-1.558792e+00 -4.191957e-01 -5.235093e+00 219 225 127
7.452614e-01 -4.241417e-01 -3.766521e+00 139 91 17
1.658815e+00 -7.231609e-01 -4.936908e+00 196 205 114
1.499146e+00 -7.287164e-01 -4.759635e+00 196 206 119
-2.495494e+00 -1.043697e+00 -4.532018e+00 236 241 149
-1.809049e+00 -1.018589e+00 -4.400938e+00 222 228 132
1.186497e+00 -9.328155e-01 -4.479536e+00 183 191 108
6.232326e-01 -8.886285e-01 -4.123102e+00 179 152 80
-4.090780e-02 -1.073970e+00 -4.125065e+00 187 142 55
1.346408e+00 -1.129680e+00 -4.275837e+00 191 204 116
1.242809e-01 -1.162274e+00 -4.030659e+00 198 183 96
-3.250871e+00 3.126635e+00 -1.193010e+01 219 226 130
-6.120895e-02 7.013440e-01 -4.081740e+00 200 211 70
1.780016e-01 6.508246e-01 -3.492513e+00 184 195 65
-1.291099e-01 5.210188e-01 -4.057905e+00 164 174 43
-2.634338e-01 -1.255030e-01 -3.824054e+00 151 173 26
-2.539745e+00 -8.152073e-01 -4.982643e+00 228 231 140
-2.734820e+00 -9.208836e-01 -4.483542e+00 221 231 135
-2.476237e+00 -1.277962e+00 -4.135215e+00 229 235 139
-1.700346e-01 -1.211864e-01 -3.815812e+00 77 84 0
1.425294e-01 -1.649347e-01 -3.866110e+00 73 82 0
-2.306573e+00 -5.734645e-01 -4.814557e+00 224 228 134
9.380441e-01 -3.241015e-01 -3.978872e+00 167 123 50
-3.698676e-03 1.100886e+00 -4.315442e+00 148 157 32
2.299224e-01 1.015819e+00 -4.243288e+00 213 224 122
-4.665833e-01 1.155088e-02 -4.269543e+00 177 171 58
-3.305519e-01 -5.070752e-02 -3.977534e+00 168 197 41
-3.305519e-01 -5.070752e-02 -3.977534e+00 168 197 41
7.701887e-01 -2.783994e-02 -4.040621e+00 123 122 33
7.701887e-01 -2.783994e-02 -4.040621e+00 123 122 33
2.398747e-01 -7.669211e-02 -3.905709e+00 130 141 11
-1.745829e+00 -4.219548e-01 -5.333892e+00 224 230 132
4.073518e-03 -2.642075e-01 -3.789741e+00 95 102 0
1.393051e+00 -6.073668e-01 -4.834515e+00 171 183 98
9.129375e-01 -4.614383e-01 -3.962345e+00 139 100 23
-2.266118e+00 -1.064730e+00 -4.119020e+00 227 232 138
-2.433083e+00 -2.847731e-01 -5.455644e+00 226 230 135
-3.383836e+00 -8.956131e-01 -6.329806e+00 232 236 142
2.175248e-01 6.418474e-01 -3.492351e+00 201 211 80
