ply
format ascii 1.0
element face 0
property list uchar int vertex_indices
element vertex 918
property float x
property float y
property float z
property uchar diffuse_red
property uchar diffuse_green
property uchar diffuse_blue
end_header
9.325822e-01 5.759994e-03 -4.159421e+00 109 106 11
1.282117e-01 -1.367329e-01 -3.770577e+00 88 97 1
-1.879015e-01 -1.023699e-01 -3.826824e+00 78 79 0
3.206979e+00 -7.625661e-01 -5.200448e+00 214 217 126
1.282739e+00 -4.110702e-01 -4.211294e+00 208 209 119
2.644303e+00 -1.000576e+00 -4.679816e+00 211 214 123
1.255589e+00 -7.695072e-01 -4.125074e+00 185 189 102
-2.198748e-01 -9.166511e-01 -4.153593e+00 124 98 13
-2.701611e+00 -6.626066e-01 -5.193163e+00 228 233 139
-2.780922e+00 -7.685720e-01 -5.112165e+00 237 243 147
-2.780922e+00 -7.685720e-01 -5.112165e+00 237 243 147
-1.815446e+00 -9.266039e-01 -4.822091e+00 228 233 141
8.148451e-01 -1.296144e+00 -3.746293e+00 217 218 125
-1.890926e+00 -9.625968e-01 -4.509451e+00 220 223 132
5.131202e-02 5.011318e-01 -3.706985e+00 114 107 0
-5.076775e-01 6.562842e-01 -4.510131e+00 215 229 117
-1.797533e+00 -1.798296e-02 -5.958953e+00 230 234 140
1.047241e+00 -4.770336e-01 -3.991365e+00 148 106 24
-7.613894e-01 -3.098645e-01 -4.077623e+00 171 125 27
-1.859173e-01 -4.052934e-01 -3.841910e+00 201 173 74
1.186286e+00 -7.287066e-01 -4.299444e+00 186 184 99
-1.976528e+00 -4.641061e-01 -5.491632e+00 228 231 140
1.487337e+00 -1.191110e+00 -4.286354e+00 194 198 111
1.215778e+00 -1.345327e+00 -3.794668e+00 216 217 124
8.339367e-01 -1.719423e-01 -3.857370e+00 125 136 16
4.288292e-01 8.745599e-01 -4.328132e+00 231 242 104
-7.345360e-03 2.543435e-01 -4.026006e+00 195 202 72
-1.419874e+00 -4.080851e-01 -5.791395e+00 220 225 131
3.955448e-01 3.449581e-01 -3.890434e+00 90 64 0
-1.193008e-02 1.228568e+00 -5.210183e+00 229 245 110
1.540453e+00 6.683120e-01 -3.978772e+00 206 216 119
1.540453e+00 6.683120e-01 -3.978772e+00 206 216 119
1.493816e+00 5.927920e+00 -1.860580e+01 182 164 49
2.333668e+00 5.237486e+00 -1.668744e+01 185 169 56
-2.149741e-01 2.034920e-01 -4.315861e+00 106 98 0
-4.125572e-01 -4.112594e-01 -3.973136e+00 198 152 56
6.085476e-01 5.540807e+00 -1.694071e+01 183 166 50
-1.312016e-01 6.979264e-01 -4.138861e+00 204 212 75
-3.620246e-02 3.783128e-01 -4.120054e+00 189 204 79
-3.500171e-01 2.563960e-01 -4.375769e+00 94 90 5
-5.298745e-01 -3.443286e-02 -4.177380e+00 136 148 14
3.860820e-01 -7.470720e-01 -3.948527e+00 160 117 33
-5.075796e-01 -6.721721e-01 -4.309917e+00 174 137 46
9.942937e-01 -1.115399e+00 -4.309409e+00 159 143 62
-3.607022e-02 -1.130501e+00 -4.096896e+00 193 143 54
4.393696e+00 5.399049e+00 -1.700890e+01 195 181 74
4.393696e+00 5.399049e+00 -1.700890e+01 195 181 74
3.561181e+00 4.645216e+00 -1.545419e+01 182 168 61
6.639432e-01 1.333698e+00 -4.456965e+00 219 225 129
8.691375e-01 2.405293e-01 -4.242577e+00 143 158 40
7.580567e-01 -2.917784e-01 -3.857818e+00 154 128 28
3.427903e-01 -9.730976e-01 -3.980459e+00 157 115 35
6.157974e-01 -1.232355e+00 -3.882515e+00 192 192 102
8.991753e-01 1.209885e+00 -4.593905e+00 217 223 123
1.548710e-02 -1.239365e+00 -4.004448e+00 206 186 96
1.640595e+00 -1.092570e+00 -4.363751e+00 206 215 124
2.880315e-01 -8.295334e-01 -3.959242e+00 156 115 33
2.393978e+00 6.243831e+00 -1.884998e+01 143 124 20
2.393978e+00 6.243831e+00 -1.884998e+01 143 124 20
-1.933862e+00 5.419469e+00 -1.658415e+01 198 180 70
2.039963e-01 7.968587e-01 -3.465266e+00 197 207 74
-2.533197e+00 9.240843e-01 -7.943977e+00 221 226 134
-6.236755e-01 -1.095078e+00 -4.318322e+00 205 205 109
-2.686253e+00 -1.060888e+00 -4.337200e+00 233 243 147
2.233487e+00 5.407559e+00 -1.700691e+01 202 185 70
-3.565885e-01 9.907510e-01 -4.494353e+00 214 224 119
1.523370e+00 -1.128000e+00 -4.313643e+00 187 195 109
2.058702e+00 -1.310521e+00 -3.471659e+00 213 216 127
5.173681e-01 -1.152097e+00 -3.979898e+00 177 165 79
4.701749e+00 1.773401e+00 -9.771564e+00 209 215 119
-4.447492e-02 5.783517e-01 -3.663659e+00 149 155 25
-1.406229e-02 -2.853933e-01 -3.722475e+00 99 118 0
3.191980e-01 7.293072e-01 -3.503806e+00 177 188 57
-1.652094e-01 6.866418e-01 -4.135980e+00 185 196 58
2.396107e-01 6.559220e-01 -3.383846e+00 176 187 60
7.599228e-01 2.844140e-01 -4.225039e+00 148 160 52
5.133443e-02 3.397105e-02 -3.741142e+00 139 121 11
7.928821e-02 -3.575543e-02 -3.689958e+00 146 128 0
1.133857e+00 -4.276966e-01 -3.965291e+00 175 158 80
2.002797e-01 -5.643052e-01 -3.690350e+00 163 110 34
-2.523646e-01 -9.648332e-01 -4.168567e+00 154 122 35
2.555177e+00 5.590750e+00 -1.769467e+01 200 184 66
6.561739e-01 1.088496e+00 -4.463569e+00 77 75 6
8.320890e-01 1.024577e+00 -4.512445e+00 133 137 14
8.923811e-01 1.017423e+00 -4.513166e+00 211 219 118
8.923811e-01 1.017423e+00 -4.513166e+00 211 219 118
3.292779e-01 6.242770e-01 -3.475444e+00 153 161 43
-1.519615e-01 2.470015e-01 -4.293137e+00 126 137 17
-2.179830e-01 1.769653e-01 -4.283515e+00 188 176 75
6.549173e-01 2.306662e-01 -3.957817e+00 118 105 7
8.634109e-01 1.947432e-01 -4.298148e+00 109 121 20
6.332227e-01 1.896914e-01 -3.965400e+00 120 105 12
9.523891e-01 4.326911e-02 -4.156094e+00 119 119 26
-6.524119e-01 -5.515591e-02 -4.250531e+00 187 181 65
-2.907055e-01 -2.660726e-02 -4.088709e+00 143 173 14
-8.345139e-02 -6.021746e-01 -3.750039e+00 187 137 50
-2.952101e-01 -7.979824e-01 -4.135629e+00 185 154 63
1.678932e-01 -1.108996e+00 -4.057188e+00 163 107 32
-5.696684e+00 3.459323e+00 -1.310704e+01 232 237 145
1.792129e-01 1.071672e+00 -4.205251e+00 199 209 86
5.943177e-01 1.053356e+00 -4.408603e+00 104 106 7
2.025694e-01 1.021388e+00 -4.248215e+00 179 188 61
2.928209e-01 8.595730e-01 -3.481936e+00 216 226 95
7.906130e-01 8.752815e-01 -4.485555e+00 106 109 9
2.599227e-01 6.765301e-01 -3.414441e+00 178 189 61
6.502101e-01 6.083273e-01 -4.096479e+00 141 116 23
2.314053e-01 5.840325e-01 -3.429170e+00 139 141 29
5.779263e-01 5.456911e-01 -3.859549e+00 142 100 22
9.205511e-01 5.230567e-01 -4.443936e+00 100 107 5
-1.969431e-01 2.531823e-01 -4.339051e+00 109 116 1
-3.034189e-02 2.623515e-01 -4.029056e+00 202 214 78
8.839230e-02 2.002978e-01 -3.851306e+00 164 161 26
1.203873e-01 1.504588e-01 -3.950870e+00 172 169 37
5.923497e-01 1.161998e-01 -3.999640e+00 108 100 18
-3.821554e-01 -1.077248e-01 -4.041763e+00 129 161 9
9.198538e-01 -6.987267e-02 -4.022944e+00 106 113 8
-7.680244e-01 -2.161049e-01 -4.251208e+00 199 185 80
9.957388e-02 -9.795590e-01 -3.993113e+00 162 109 29
6.733939e-01 -1.004251e+00 -4.149064e+00 141 114 40
1.085669e+00 -1.072777e+00 -4.219323e+00 166 167 87
1.555894e+00 -1.156830e+00 -4.241366e+00 196 209 121
2.118829e-02 -1.168541e+00 -3.959320e+00 183 146 57
4.112008e-01 7.904497e-01 -3.595917e+00 166 178 50
7.852594e-01 7.941630e-01 -4.525846e+00 92 92 2
-1.181553e-01 5.455548e-01 -4.149542e+00 198 209 81
7.278186e-01 4.062223e-01 -4.254135e+00 190 177 75
5.262095e-01 3.704167e-01 -3.831172e+00 117 85 12
6.549766e-01 3.177938e-01 -4.081177e+00 148 140 39
9.417108e-01 2.630262e-01 -4.273058e+00 185 196 100
6.245394e-01 2.111384e-01 -4.026489e+00 161 146 51
1.709177e-01 1.441120e-01 -4.019279e+00 139 129 9
1.012490e-01 7.857047e-02 -3.842948e+00 141 136 10
-6.708047e-01 -1.626931e-01 -4.222360e+00 199 169 66
9.483591e-01 -1.136610e-01 -4.063432e+00 124 132 28
9.779469e-01 -1.445971e-01 -4.228399e+00 124 132 28
8.640012e-01 -2.783133e-01 -3.930197e+00 149 125 36
-7.884053e-01 -8.010613e-01 -4.491297e+00 208 208 110
-3.529495e-01 -1.137417e+00 -4.364245e+00 201 189 95
9.171424e-01 -1.092418e+00 -4.207066e+00 155 141 66
1.209568e+00 -1.141140e+00 -4.090876e+00 186 196 109
-3.204676e+00 2.758181e+00 -1.158573e+01 216 226 127
5.665102e-01 1.181638e+00 -4.477244e+00 61 60 0
8.835848e-03 1.127804e+00 -4.243058e+00 199 212 71
6.817189e-01 1.029537e+00 -4.484215e+00 63 60 0
7.996967e-01 7.324019e-01 -4.287255e+00 118 120 10
-4.083424e-01 6.711931e-01 -4.398513e+00 200 210 88
4.103443e-01 6.429073e-01 -3.479591e+00 140 146 35
6.270970e-01 4.297720e-01 -4.007768e+00 128 95 10
5.795135e-01 3.864232e-01 -3.848817e+00 157 139 50
5.299090e-01 3.130211e-01 -3.822685e+00 144 127 43
5.299090e-01 3.130211e-01 -3.822685e+00 144 127 43
1.162186e+00 2.337873e-01 -4.859378e+00 206 214 127
5.511850e-01 2.553617e-01 -3.835352e+00 92 75 0
5.021890e-01 2.026075e-01 -3.844620e+00 123 106 18
1.105499e+00 1.319851e-01 -4.489085e+00 152 133 49
-1.002104e-01 1.193970e-01 -4.063711e+00 217 219 72
-1.692378e-01 1.186519e-02 -3.839610e+00 220 228 83
9.169015e-02 2.597414e-02 -3.835892e+00 84 68 0
-1.251109e-01 -9.851884e-02 -3.727624e+00 183 174 31
-1.587288e-01 -1.569695e-01 -3.766403e+00 97 105 0
-4.597105e-01 -4.128778e-01 -4.013132e+00 181 134 38
-1.220603e-01 -8.145642e-01 -3.937262e+00 209 182 95
1.226460e+00 -9.954093e-01 -4.310312e+00 182 186 104
-1.415642e+00 -1.123452e+00 -3.942522e+00 225 235 138
-1.342446e+00 -1.162876e+00 -3.807805e+00 226 232 134
7.661141e-01 -1.180366e+00 -3.997248e+00 174 174 88
-4.190655e+00 3.508864e+00 -1.337430e+01 220 226 130
6.239343e-01 1.303140e+00 -4.504669e+00 114 117 19
5.577023e-02 1.068982e+00 -4.183933e+00 233 245 111
-3.364231e+00 1.190038e+00 -8.511979e+00 227 233 135
1.314435e-01 1.039582e+00 -4.144404e+00 195 205 73
6.067640e-01 9.828139e-01 -4.380042e+00 124 127 13
-1.652518e-01 9.021111e-01 -4.176441e+00 214 226 89
-3.679339e+00 8.232378e-01 -7.954025e+00 232 236 142
5.861512e-01 6.111841e-01 -4.031157e+00 167 143 50
9.611063e-01 4.170022e-01 -4.760682e+00 212 220 119
1.255777e-01 3.118925e-01 -3.643962e+00 110 100 0
3.813887e-01 1.538572e-01 -3.875094e+00 58 42 0
2.195184e-01 1.348986e-01 -3.925130e+00 153 145 38
2.195184e-01 1.348986e-01 -3.925130e+00 153 145 38
-5.912682e-01 -9.490201e-02 -4.193002e+00 119 124 1
1.070802e+00 -9.543093e-02 -4.335328e+00 146 126 39
-1.777426e+00 -4.702843e-01 -5.430059e+00 219 225 127
8.531178e-01 -4.344811e-01 -3.750539e+00 139 91 17
1.876118e+00 -7.823484e-01 -5.033990e+00 196 205 114
1.699928e+00 -7.886816e-01 -4.843486e+00 196 206 119
-2.748778e+00 -1.108382e+00 -4.453408e+00 236 241 149
-2.032381e+00 -1.111851e+00 -4.400839e+00 222 228 132
1.351748e+00 -1.020938e+00 -4.539839e+00 183 191 108
7.138792e-01 -9.701330e-01 -4.143832e+00 179 152 80
-4.201192e-02 -1.179731e+00 -4.129606e+00 187 142 55
1.532422e+00 -1.237781e+00 -4.300749e+00 191 204 116
1.475595e-01 -1.277747e+00 -4.020202e+00 198 183 96
-3.483672e+00 3.245306e+00 -1.228847e+01 219 226 130
-7.239363e-02 8.403729e-01 -4.125386e+00 200 211 70
2.021231e-01 7.971211e-01 -3.475892e+00 184 195 65
-1.490525e-01 6.350365e-01 -4.094385e+00 164 174 43
-3.077304e-01 -1.219527e-01 -3.935186e+00 151 173 26
-2.686554e+00 -8.082952e-01 -4.740507e+00 228 231 140
-2.980488e+00 -9.542658e-01 -4.351127e+00 221 231 135
-2.669177e+00 -1.314640e+00 -3.917574e+00 229 235 139
-1.931359e-01 -9.303745e-02 -3.809012e+00 77 84 0
1.637920e-01 -1.424990e-01 -3.864708e+00 73 82 0
-2.593372e+00 -6.214475e-01 -4.876494e+00 224 228 134
1.052211e+00 -2.989738e-01 -3.882753e+00 167 123 50
-5.791055e-03 1.283990e+00 -4.344613e+00 148 157 32
2.576434e-01 1.195539e+00 -4.308111e+00 213 224 122
-5.272436e-01 5.158398e-02 -4.281506e+00 177 171 58
-3.766912e-01 -1.654713e-02 -3.994026e+00 168 197 41
-3.882753e-01 -3.351723e-02 -4.099293e+00 168 197 41
8.821479e-01 1.021636e-02 -4.081220e+00 123 122 33
8.821479e-01 1.021636e-02 -4.081220e+00 123 122 33
2.737184e-01 -3.750484e-02 -3.884112e+00 130 141 11
-1.959945e+00 -4.583335e-01 -5.447573e+00 224 230 132
6.273004e-03 -2.575652e-01 -3.788674e+00 95 102 0
1.632649e+00 -7.074491e-01 -5.152205e+00 171 183 98
1.043749e+00 -4.800395e-01 -3.972735e+00 139 100 23
-2.486300e+00 -1.115029e+00 -3.977861e+00 227 232 138
-2.756209e+00 -3.187139e-01 -5.648443e+00 226 230 135
-3.777543e+00 -1.009639e+00 -6.540430e+00 232 236 142
2.475829e-01 7.869713e-01 -3.477132e+00 201 211 80
8.620998e-01 7.094301e-01 -4.518898e+00 103 102 0
4.192963e-01 3.688846e-01 -3.786752e+00 86 58 7
8.015488e-01 2.434852e-01 -4.215182e+00 134 142 41
2.560290e+00 1.240859e+00 -3.520450e+00 206 206 111
8.400351e-01 1.016537e+00 -4.533661e+00 131 139 18
8.297157e-01 3.948311e-01 -4.420382e+00 139 140 40
9.026509e-01 2.620748e-01 -4.254496e+00 162 173 75
1.956701e-01 -6.660528e-02 -3.851765e+00 121 125 0
-2.231570e-02 -2.190680e-01 -3.731386e+00 118 127 4
-3.095378e-01 6.303374e-01 -4.284714e+00 192 203 77
4.433071e-01 2.137509e-01 -3.768291e+00 90 73 0
1.547037e-01 -2.747396e-01 -3.736651e+00 106 131 4
-1.673070e-01 -6.837833e-01 -3.894752e+00 166 128 45
-7.840062e-02 -7.769658e-01 -3.923988e+00 157 115 34
-1.335276e-01 1.309621e+00 -4.298139e+00 193 205 89
-5.803752e-01 -1.495438e-01 -4.181185e+00 186 168 66
-4.852081e-01 -1.003902e+00 -4.416950e+00 169 142 58
1.077816e+00 -6.880463e-01 -4.259910e+00 147 116 46
1.106669e+00 -1.137109e+00 -4.308999e+00 179 175 96
-3.267146e+00 8.022609e-01 -7.538879e+00 233 233 145
-3.578723e+00 8.029395e-01 -7.707729e+00 232 237 147
1.893408e+00 -5.465129e-01 -5.072278e+00 212 219 139
-2.826781e+00 -4.741970e-01 -5.359399e+00 227 230 143
-2.767704e+00 -9.344620e-01 -4.582128e+00 235 239 152
1.435717e+00 -1.298712e+00 -3.334390e+00 215 217 133
-3.305119e+00 8.125312e-01 -7.646426e+00 233 233 145
7.944793e-02 2.485601e-01 -3.753771e+00 193 193 68
-3.306973e+00 5.066323e-01 -7.261879e+00 231 232 144
-3.336198e+00 5.098150e-01 -7.365350e+00 231 232 144
-1.894894e+00 -9.804749e-01 -5.155388e+00 226 235 142
2.637267e+00 -5.077469e-01 -5.192730e+00 216 219 140
3.360076e-01 -4.354408e-01 -3.675507e+00 178 134 59
5.300135e-01 1.446045e+00 -4.463028e+00 206 219 127
7.824959e-01 1.410704e+00 -4.515191e+00 203 218 125
1.302940e+00 9.025667e-01 -2.385281e+00 212 222 118
1.181499e-01 -9.628228e-01 -3.892685e+00 154 107 29
-3.608111e-02 -1.662175e-01 -3.637254e+00 136 132 4
2.436480e-01 -2.804479e-01 -3.733286e+00 103 124 3
3.154950e+00 1.279681e+00 -8.636730e+00 215 218 129
3.826040e+00 8.424207e+00 -2.348941e+01 182 171 65
-9.344981e-01 1.315254e+00 -3.292010e+00 185 180 66
2.774790e+00 2.302410e+00 -7.050681e+00 179 166 62
-3.474175e-01 2.211913e-01 -4.392575e+00 87 81 14
3.768021e-01 1.437412e+00 -4.602127e+00 213 223 124
2.199520e+00 -5.792680e-01 -5.203304e+00 210 219 126
-1.446069e-01 7.700239e+00 -2.491845e+01 198 181 62
4.603149e+00 7.372431e+00 -2.124418e+01 164 156 47
5.016104e+00 4.702431e+00 -1.467958e+01 191 174 66
-1.504994e+00 1.397005e+00 -8.882322e+00 213 228 127
9.084174e-01 -1.073323e-01 -4.010691e+00 116 131 12
2.915140e-01 7.421604e-01 -3.462382e+00 182 192 61
8.600429e-01 1.166314e+00 -4.594898e+00 105 112 3
-2.859709e+00 9.927547e-01 -8.144837e+00 218 224 126
5.894818e-01 -1.071107e+00 -4.120339e+00 152 118 44
-3.634054e-01 5.050125e+00 -1.532009e+01 182 165 51
-1.747339e-03 3.381332e-01 -4.087713e+00 205 214 87
-5.645801e-01 2.876997e-01 -4.968750e+00 188 184 80
-7.410018e-02 1.451182e-01 -3.914078e+00 203 208 62
-6.577643e-01 -9.107185e-01 -4.569195e+00 197 154 66
-2.442306e-01 -1.001040e+00 -4.217230e+00 170 130 45
7.983957e+00 9.905424e+00 -2.647252e+01 157 142 45
-5.905193e+00 9.039468e+00 -2.721993e+01 208 194 72
-6.263953e-01 4.318287e+00 -1.457340e+01 221 225 125
-1.217631e-01 1.063352e+00 -4.230989e+00 231 243 105
-4.538783e-01 4.198979e-01 -4.539494e+00 205 220 91
-3.463520e-01 2.549037e-01 -4.380882e+00 92 89 7
-1.478877e-01 -7.276724e-01 -3.959564e+00 187 155 70
-2.518374e+00 1.016633e+01 -2.627255e+01 174 161 63
6.478346e-01 9.929960e-01 -2.236711e+00 179 165 66
1.287304e-01 6.407879e-01 -3.361022e+00 202 213 81
1.234666e+00 2.874103e-01 -4.501940e+00 213 224 128
-3.046717e-02 2.584531e-01 -4.070178e+00 199 211 79
6.545978e-01 -1.567463e-01 -3.891579e+00 118 148 14
-6.509534e-02 -7.157274e-01 -3.860858e+00 178 136 52
-2.994109e-01 -7.646790e-01 -4.155998e+00 162 125 40
-1.666888e+00 7.418553e+00 -2.115324e+01 197 181 70
-4.429159e-02 5.826355e-01 -4.112429e+00 183 193 59
-2.724211e-01 5.025462e-01 -4.402774e+00 149 161 32
1.292400e+00 -1.064666e+00 -4.526003e+00 185 189 103
1.134058e+00 -1.148286e+00 -4.357461e+00 173 176 89
1.015155e+00 -1.182295e+00 -4.240666e+00 184 180 95
7.930117e-01 -6.980910e-01 -4.080960e+00 129 87 5
7.703769e-01 -6.899704e-01 -4.028949e+00 129 87 5
1.573517e+00 -1.066890e+00 -4.329853e+00 206 213 120
-5.155389e-01 -1.036812e+00 -4.357947e+00 210 196 107
1.101871e+01 1.119546e+01 -2.949972e+01 179 167 75
1.307389e+00 -1.172930e+00 -3.989951e+00 195 198 109
9.200383e-02 2.616697e-01 -3.874994e+00 190 192 57
-3.660826e-01 1.039568e+00 -4.410782e+00 214 224 116
-6.182860e-01 -6.383400e-01 -4.429382e+00 148 104 17
-1.746830e-01 1.078365e+00 -4.391586e+00 229 245 110
5.831914e-01 1.297684e+00 -4.475366e+00 138 134 29
9.696275e-01 1.186925e+00 -4.689428e+00 216 224 124
-1.179101e-01 1.164733e+00 -4.394823e+00 229 237 102
-7.727762e-02 3.172280e-01 -4.277393e+00 153 172 54
-2.959216e-01 -1.339065e-02 -4.034816e+00 141 171 15
-6.280622e-01 -5.308089e-02 -4.230422e+00 143 154 15
8.199664e-01 1.147422e+00 -4.625060e+00 109 113 4
-3.609938e-02 3.790821e-01 -4.123003e+00 189 204 79
-1.081182e-01 -8.775574e-01 -3.977884e+00 175 142 55
2.480302e-01 1.032928e+00 -4.283375e+00 196 202 64
-3.728556e-01 8.216839e-01 -4.312942e+00 223 232 103
-3.256091e-02 7.344661e-01 -3.784675e+00 218 226 88
9.555513e-01 5.594229e-01 -4.443342e+00 224 226 125
-4.021723e-01 5.881339e-01 -4.456064e+00 191 200 73
-8.350147e-03 2.929793e-01 -4.031132e+00 210 220 90
-5.934083e-01 6.981569e-02 -4.341476e+00 161 167 33
-6.521266e-01 -1.145691e-01 -4.257261e+00 186 169 53
-6.924272e-02 -3.141500e-01 -3.732358e+00 136 143 17
-4.572373e-01 -8.985988e-01 -4.332683e+00 162 139 45
-4.941278e-01 -9.179813e-01 -4.370423e+00 177 147 56
-1.594887e-01 -1.031350e+00 -4.160977e+00 184 143 53
-3.787885e-01 -1.105666e+00 -4.418536e+00 199 186 90
5.828768e-01 1.323655e+00 -4.469223e+00 128 126 28
-6.925509e-02 7.241659e-01 -4.133353e+00 197 206 65
7.721202e-02 5.555143e-01 -3.449729e+00 162 165 49
1.687179e-01 4.996260e-01 -3.515750e+00 102 91 3
4.062173e-02 3.028796e-01 -4.003119e+00 181 187 57
-2.041850e-01 -5.246795e-02 -3.901517e+00 118 131 4
-3.730336e-01 -1.009086e-01 -4.048598e+00 134 163 9
-3.088552e-01 -1.505146e-01 -3.963844e+00 148 178 33
-5.309184e-01 -4.406616e-01 -4.091175e+00 208 157 60
-6.888786e-03 -9.569467e-01 -3.982713e+00 188 135 55
6.416870e+00 5.451490e+00 -1.789339e+01 169 156 52
1.259613e-01 7.726226e-01 -3.471209e+00 204 214 81
-2.916829e-02 1.809037e-01 -3.932780e+00 218 222 72
3.919841e+00 -6.093539e-01 -5.322086e+00 215 218 127
-1.342944e+00 -2.326804e-01 -6.004412e+00 220 230 131
-1.663335e+00 -1.901995e-01 -5.938340e+00 221 227 131
1.154436e+00 -1.163465e+00 -4.194347e+00 193 200 114
-8.388588e-01 -9.754538e-01 -4.518966e+00 208 214 114
1.229036e+00 -1.461929e+00 -3.159020e+00 218 221 130
-2.418540e-01 1.251046e+00 -4.329603e+00 217 224 121
-3.723540e-01 9.631980e-01 -8.097562e+00 210 222 122
-4.549941e-01 2.482041e-01 -4.449183e+00 112 111 7
2.927801e-02 1.777827e-01 -3.803123e+00 156 150 0
3.511252e+00 -6.851626e-01 -5.531796e+00 203 206 115
-1.936649e-01 6.960420e-02 -4.220312e+00 165 186 45
-5.169552e-01 1.941150e-02 -4.210845e+00 129 127 8
1.132013e+00 -4.238985e-01 -3.963750e+00 204 203 111
-7.603405e-01 -4.266521e-01 -4.371213e+00 184 150 43
1.076224e+00 -8.743953e-01 -4.268796e+00 189 177 95
-4.522520e-01 -8.153308e-01 -4.289542e+00 217 201 105
1.021312e+00 -1.220115e+00 -3.999342e+00 200 203 114
-2.462429e+00 1.131819e+00 -8.375433e+00 220 225 135
2.780446e-01 4.153891e-01 -3.567328e+00 116 96 1
2.113605e-02 -1.875176e-01 -3.662697e+00 101 110 0
-4.165861e-01 -1.538161e-01 -4.068980e+00 93 115 0
-2.176492e-01 -7.758108e-01 -4.023121e+00 195 166 77
-5.158930e-02 -8.447252e-01 -3.905404e+00 137 99 14
-5.509495e-01 -9.556210e-01 -4.365818e+00 174 140 51
-1.218549e-02 1.279798e+00 -4.370816e+00 169 173 49
2.472187e+00 -1.284303e+00 -4.155088e+00 210 215 125
2.108450e-01 9.087767e-01 -3.698937e+00 232 239 106
-5.302590e-01 4.783962e-02 -4.235155e+00 138 133 18
-2.419568e+00 1.306364e-01 -6.469808e+00 230 233 142
-1.690112e-01 -2.441580e-01 -3.679727e+00 130 142 18
3.958658e-01 1.132833e+00 -4.119049e+00 64 66 0
3.017222e-01 3.058635e-01 -3.632863e+00 69 39 2
1.221277e+00 2.232598e+00 -4.637475e+00 175 162 50
-2.448258e-01 1.367002e-01 -4.255049e+00 124 124 18
1.006984e+00 -1.199748e+00 -4.152062e+00 182 186 100
-1.611728e-01 1.815608e-01 -4.249390e+00 119 116 16
-5.933862e-01 7.515212e-02 -4.309995e+00 184 182 71
1.306552e+00 -1.010926e-01 -4.745086e+00 173 155 69
3.953271e-01 1.138166e+00 -4.472451e+00 75 78 0
8.913650e-01 6.928425e-01 -4.496237e+00 103 107 11
2.682704e-01 6.098740e-01 -3.441557e+00 146 150 39
1.010486e+00 -2.866852e-01 -4.038656e+00 159 123 45
6.742703e-02 -5.271509e-01 -3.687693e+00 178 133 47
1.058867e+00 -1.117589e+00 -4.358798e+00 155 139 63
9.787048e-01 -1.159642e+00 -4.266738e+00 162 156 78
-4.761967e-01 -6.455248e-01 -2.095223e+00 214 221 118
-5.500851e-01 -1.172618e+00 -4.072462e+00 214 218 121
1.401657e-01 -1.154484e+00 -4.057111e+00 176 119 40
-2.524145e+00 1.139264e+00 -8.596501e+00 213 223 124
1.649602e+00 -4.709006e-01 -5.418749e+00 186 195 112
1.760620e+00 -7.034174e-01 -5.023128e+00 195 208 120
-1.940912e+00 -1.027640e+00 -4.372033e+00 228 233 139
-2.772288e+00 1.255010e+00 -8.875621e+00 219 229 130
-3.317283e+00 6.405707e-01 -7.705274e+00 225 229 134
3.850165e+00 5.423298e+00 -1.707106e+01 193 181 73
-5.114217e-01 7.363395e-02 -4.238078e+00 195 195 82
-3.709054e-01 5.972236e-01 -4.423290e+00 167 177 52
-3.733128e-01 5.946811e-01 -4.416326e+00 167 177 52
-1.180869e-01 3.100133e-02 -3.800587e+00 162 162 8
-3.439400e-01 -1.102099e+00 -4.281376e+00 206 188 101
7.266711e+00 1.140444e+01 -2.853658e+01 141 146 73
1.975418e-01 3.461458e+00 -9.139444e+00 186 175 61
6.985815e+00 5.528727e+00 -1.820991e+01 169 156 54
-3.371593e-01 3.399482e-01 -4.426182e+00 176 192 68
-7.408756e-01 -7.340549e-02 -4.355375e+00 223 229 132
-2.108858e+00 1.920313e+00 -5.172491e+00 189 173 66
1.054891e+01 6.480613e+00 -1.991146e+01 155 138 46
5.934642e-01 -1.188858e+00 -4.152179e+00 177 161 83
-2.269951e+00 3.266194e+00 -1.277629e+01 213 225 127
-4.797963e-01 1.271359e-01 -4.274161e+00 129 138 9
-1.595377e-01 1.836870e-01 -4.241917e+00 118 113 9
9.259769e-01 2.882223e-01 -4.316528e+00 168 177 72
-2.702271e-01 -5.229196e-03 -4.107035e+00 137 166 12
-7.308156e-01 -1.491823e-01 -4.225612e+00 208 196 89
4.704295e-01 1.112269e+00 -4.448423e+00 90 90 0
5.912149e-01 9.443628e-01 -4.345223e+00 101 96 0
9.982010e-02 1.203930e+00 -4.451477e+00 205 211 92
7.185914e-01 1.174918e+00 -4.508158e+00 92 90 5
8.386784e-01 9.906277e-01 -4.589591e+00 131 133 13
6.759492e-01 9.429213e-01 -4.435097e+00 85 83 0
-2.892544e-01 7.895846e-01 -4.216367e+00 213 223 90
1.332045e-01 3.622609e-01 -3.568404e+00 123 110 1
-5.651801e-01 -7.455185e-02 -4.222861e+00 146 162 25
1.330915e+00 -3.579624e-02 -4.858142e+00 176 150 66
6.212826e-01 -2.013676e-01 -3.819933e+00 108 136 13
9.255671e-01 1.274621e+00 -4.655262e+00 211 217 121
2.029596e-01 1.117258e+00 -4.424715e+00 189 195 80
2.594981e-01 6.765465e-01 -3.415936e+00 177 186 61
7.450563e-01 4.570596e-01 -4.365740e+00 91 75 0
-5.289239e-01 1.814293e-01 -4.369467e+00 150 166 39
6.472171e-01 4.001833e-02 -4.032113e+00 90 103 9
-5.332237e-01 -3.941113e-01 -4.083469e+00 184 135 37
1.666903e+00 3.746852e-01 -7.067554e+00 216 221 131
4.444505e-01 -1.176911e-01 -3.860527e+00 92 88 1
-2.344889e+00 -8.169079e-01 -4.690169e+00 225 229 135
-4.145902e-01 -1.007552e+00 -4.364448e+00 177 160 68
4.137892e-01 -1.018234e+00 -4.064144e+00 138 102 31
3.190110e-01 -1.103132e+00 -4.047706e+00 156 112 37
-1.834529e+00 -1.356804e+00 -3.175885e+00 227 227 137
7.783779e-01 1.240164e+00 -4.561801e+00 214 219 120
-2.190063e-01 7.982889e-02 -4.178742e+00 167 183 40
-6.422086e-01 -5.835315e-01 -4.319114e+00 160 117 25
1.525690e+00 -6.107002e-01 -5.211943e+00 177 176 94
-9.695924e-01 -1.333450e+00 -3.395990e+00 216 222 126
-1.305780e+00 -1.461435e+00 -2.997526e+00 219 223 129
-2.501730e+00 8.016479e-01 -8.025059e+00 222 233 131
-9.024057e-01 -1.294698e+00 -3.747241e+00 211 218 122
-9.975722e-01 -1.330500e+00 -3.267247e+00 225 231 135
-1.674387e+00 -1.194066e+00 -3.925514e+00 227 233 137
-5.937153e-01 -1.141150e+00 -4.161145e+00 213 223 127
-1.947342e+00 -4.304927e-01 -5.491871e+00 220 230 131
-3.586327e+00 -1.404929e-02 -6.259144e+00 236 236 146
-3.586327e+00 -1.404929e-02 -6.259144e+00 236 236 146
-7.696536e-01 -5.555961e-01 -4.292272e+00 225 232 130
-3.171753e+00 8.005958e-02 -6.473918e+00 230 234 140
-8.073535e-02 -1.072882e+00 -4.109104e+00 188 142 58
7.549316e+00 6.493373e+00 -1.860549e+01 167 148 45
6.128763e+00 7.320477e+00 -2.176892e+01 180 168 56
-3.656029e+00 7.256847e-01 -7.697175e+00 227 231 137
5.112269e-01 1.333945e+00 -4.506958e+00 211 222 114
-2.680961e+00 -6.626347e-01 -5.061935e+00 228 231 140
-5.222844e-01 4.281937e+00 -1.436425e+01 231 227 133
1.307780e-01 5.828940e-01 -3.430010e+00 174 178 58
-4.979572e-01 1.071364e-01 -4.263153e+00 124 128 14
-5.598634e-01 -3.538562e-01 -4.082543e+00 213 163 74
-6.851675e-01 -5.939440e-01 -4.471970e+00 200 146 66
5.698904e-02 6.351322e-01 -3.434169e+00 210 223 92
1.940211e-01 5.150141e-01 -3.511597e+00 108 97 11
-5.561436e-01 1.828065e-01 -4.478754e+00 140 162 28
-4.218695e-01 -8.676213e-01 -4.283213e+00 172 145 58
-5.628006e-01 2.570386e-01 -5.296911e+00 189 179 88
-6.551583e-02 5.290073e-01 -4.162947e+00 187 201 78
-1.277182e-01 3.242616e-01 -4.400072e+00 91 107 0
-6.164344e-01 -3.625406e-01 -5.790882e+00 215 215 127
-5.225510e-01 -7.119068e-01 -4.332925e+00 225 187 106
-6.131903e-01 -7.785976e-01 -4.453945e+00 137 99 14
7.938523e-01 -3.978499e-02 -4.013381e+00 130 147 33
9.513258e-01 -2.098343e-01 -4.009545e+00 119 125 28
6.358916e+00 2.598027e+00 -1.169704e+01 200 214 117
-7.969376e-02 -1.365075e-01 -3.673432e+00 214 203 54
-7.731414e-01 2.806660e-01 -7.029881e+00 218 228 139
-2.651656e-01 2.920291e-01 -4.315068e+00 149 161 45
4.448044e+00 7.574919e+00 -2.174234e+01 160 149 41
5.913473e+00 7.124959e+00 -2.124494e+01 179 167 59
7.861397e+00 4.792626e+00 -1.618108e+01 181 167 63
8.537889e+00 6.626472e+00 -2.027969e+01 141 123 23
-1.294677e+00 1.237335e+01 -3.137202e+01 149 151 69
-5.200455e+00 1.081724e+01 -2.653922e+01 47 52 1
1.417551e+01 4.470201e+00 -1.522017e+01 226 222 122
-1.184718e+00 1.123588e+00 -2.312469e+00 186 169 53
1.027037e+00 5.540685e+00 -1.828674e+01 194 181 65
6.796099e+00 1.091569e+01 -2.790442e+01 163 160 79
-5.033838e+00 1.124290e+01 -2.729137e+01 141 151 82
4.578914e+00 4.170948e+00 -1.378261e+01 181 165 54
-4.061841e-03 4.991187e-01 -4.097390e+00 183 192 65
-6.684276e-01 -6.882337e-01 -4.517152e+00 177 140 51
5.779697e+00 1.077584e+01 -2.801130e+01 153 144 48
5.803327e+00 8.940631e+00 -2.421670e+01 154 137 38
-2.856382e+00 1.080783e+01 -2.803194e+01 172 158 64
4.039933e+00 7.451600e+00 -2.150503e+01 179 163 53
6.562961e+00 5.243124e+00 -1.700207e+01 174 158 47
7.729712e+00 4.599941e+00 -1.555508e+01 178 166 62
-4.893565e+00 9.258119e+00 -2.760962e+01 207 189 79
-7.646181e-02 7.241661e-01 -4.100226e+00 198 206 68
-7.158852e-02 -3.034073e-01 -3.761352e+00 125 140 16
5.246461e+00 7.416182e+00 -2.207392e+01 182 165 57
-5.308354e+00 9.500198e+00 -2.753896e+01 186 170 59
1.341085e+01 7.343929e+00 -1.990111e+01 153 150 71
4.286633e-02 -6.646479e-01 -3.677075e+00 188 141 53
3.000364e-01 -8.390336e-01 -3.982370e+00 157 116 37
5.341394e+00 8.086510e+00 -2.268554e+01 202 185 81
-5.063052e+00 1.101973e+01 -2.910608e+01 193 177 77
-5.322262e+00 1.024549e+01 -2.792811e+01 159 144 36
-5.282695e+00 9.088913e+00 -2.546785e+01 197 185 65
7.517631e-01 -6.017995e-01 -3.998798e+00 167 118 39
5.676250e-01 -6.554199e-01 -4.021782e+00 165 118 36
-4.886568e+00 7.676419e+00 -2.565670e+01 197 179 68
-2.649614e+00 3.613127e-02 -6.119643e+00 231 235 141
1.656512e+00 6.627177e+00 -1.986569e+01 123 112 8
-1.555952e-01 -2.772175e-01 -3.836448e+00 130 141 19
1.906632e-01 6.721124e-01 -3.375939e+00 200 209 79
1.015849e+00 -5.203375e-01 -3.993623e+00 167 122 41
-1.831805e-02 6.623167e-01 -3.496943e+00 216 224 88
-2.684156e-01 -2.031024e-01 -3.901348e+00 119 141 7
2.475810e-01 -9.930477e-01 -3.973874e+00 164 117 37
1.381086e+01 3.971478e+00 -1.449362e+01 210 220 124
1.298729e-01 5.442649e-01 -3.439659e+00 108 107 0
-4.858482e-01 4.998273e+00 -1.551081e+01 205 189 68
6.073483e+00 4.079626e+00 -1.595262e+01 208 214 118
1.842586e+01 1.408326e+01 -5.587886e+01 180 167 64
-5.756167e+00 5.313384e+00 -1.671869e+01 185 170 51
1.981947e+00 -2.182291e-01 -5.866960e+00 210 220 131
-3.004014e-01 5.083611e+00 -1.625576e+01 186 174 56
1.630361e+00 5.559571e+00 -1.843315e+01 186 174 64
7.618777e-02 -1.190957e+00 -4.035526e+00 182 136 56
3.555648e+00 7.482177e+00 -2.137921e+01 174 162 54
-5.230540e+00 4.304882e+00 -1.101034e+01 170 155 36
-1.096828e+00 1.805570e+00 -5.309620e+00 219 225 123
-4.050817e-01 5.887201e-01 -4.440693e+00 190 200 75
8.235531e+00 1.088549e+01 -2.853194e+01 156 144 52
1.051567e+01 7.796038e+00 -2.710303e+01 174 161 59
6.999916e-02 -6.799868e-01 -3.655717e+00 163 116 36
1.285395e+00 6.610202e+00 -1.880005e+01 185 173 60
-1.464959e+00 -7.104488e-01 -5.064793e+00 224 235 143
2.612612e-01 -9.995830e-01 -4.001143e+00 151 109 30
1.732595e-01 5.750078e+00 -1.817414e+01 205 185 75
2.194987e-01 6.227892e-01 -3.364665e+00 160 170 49
-5.003689e-02 6.088899e-01 -3.559700e+00 188 196 71
-2.324173e-01 4.138014e-01 -4.467551e+00 92 108 9
-5.108254e-01 4.273378e-01 -4.536953e+00 168 187 62
-2.205511e-01 2.060460e-01 -4.263696e+00 113 111 6
-1.682341e-01 1.780252e-01 -4.225581e+00 111 120 13
-4.313268e-01 2.356204e-01 -4.420088e+00 120 122 15
-1.727794e-01 1.158929e-01 -4.265612e+00 113 123 10
3.942994e-01 -8.602819e-02 -3.820753e+00 112 117 17
4.025819e-01 -1.467855e-01 -3.777287e+00 148 150 50
-4.817720e-01 -8.827061e-01 -4.357151e+00 226 199 110
1.370187e+01 4.147306e+00 -1.398229e+01 209 207 121
1.609005e+01 3.571025e+00 -1.312939e+01 202 199 127
1.304373e+01 3.738398e+00 -1.349032e+01 216 215 125
5.065319e+00 4.984051e+00 -1.565163e+01 189 176 71
6.127314e-01 1.371349e+00 -4.470781e+00 211 219 126
-1.649629e+00 8.353487e-01 -1.711352e+00 225 225 135
-1.303962e-01 1.358167e+00 -4.286490e+00 217 228 124
6.561727e-01 1.268342e+00 -4.476648e+00 127 132 37
4.536991e-02 5.145261e-01 -3.543366e+00 133 128 10
-4.533865e-01 6.201888e-01 -4.702114e+00 221 236 130
-5.178822e-01 2.716230e-01 -4.459166e+00 144 171 42
5.748141e-01 -1.127322e-01 -3.871652e+00 124 144 25
-6.655759e-01 2.042771e-01 -5.134709e+00 226 220 132
-5.142432e-01 7.246042e-02 -4.226269e+00 190 190 80
9.020131e-01 -2.723747e-01 -3.975403e+00 153 138 45
-6.238922e-01 -8.485777e-03 -4.309244e+00 156 166 40
-4.519681e-01 -1.042688e-01 -4.118597e+00 144 171 32
4.034184e-01 -7.822370e-01 -3.954288e+00 143 103 24
-2.036702e-01 -6.745285e-01 -3.964239e+00 181 134 54
-1.543489e-01 -6.893725e-01 -3.925416e+00 176 134 50
-6.999640e-01 -6.490992e-01 -4.625199e+00 229 194 107
-5.600278e-02 -7.855849e-01 -3.974482e+00 173 125 48
-2.136158e-01 -8.606598e-01 -4.136365e+00 180 142 61
-6.344403e-01 -8.231612e-01 -4.521207e+00 187 143 60
-4.113833e-01 -8.690108e-01 -4.308393e+00 172 145 58
-6.891614e-02 -1.073473e+00 -4.142840e+00 205 150 68
4.539831e-01 -1.276173e+00 -4.181807e+00 198 179 100
1.192593e+01 7.039750e+00 -2.096508e+01 169 155 66
1.577734e+01 1.012465e+01 -3.092136e+01 170 155 62
1.523524e+01 3.735720e+00 -1.297229e+01 229 226 149
6.063934e+00 5.209579e+00 -1.692514e+01 172 161 56
4.206709e-02 1.275011e+00 -4.355535e+00 214 227 121
-4.052461e-01 7.332363e-01 -4.372750e+00 218 232 109
-8.770068e-02 4.122634e-01 -4.203298e+00 201 217 94
1.573311e+00 -3.854142e-01 -1.170115e+00 205 211 121
8.001087e-01 -5.226599e-02 -3.978621e+00 126 143 32
-5.167031e-01 2.461729e-01 -5.009581e+00 189 173 71
3.141698e-01 -2.415614e-01 -3.789598e+00 110 126 12
-6.717198e-01 -5.816950e-01 -4.396359e+00 198 141 62
-4.106279e-01 -1.034343e+00 -4.349808e+00 188 148 63
-5.866925e-01 -1.007864e+00 -4.483866e+00 226 199 114
-3.294662e-01 -1.069631e+00 -4.332424e+00 183 145 58
-4.116942e-01 6.522592e-01 -4.335888e+00 188 202 79
-1.479647e-01 5.698334e-02 -4.056393e+00 92 112 0
7.318832e-01 -1.769005e-01 -3.909709e+00 113 133 13
8.337698e-01 -1.903739e-01 -3.926692e+00 132 141 33
-5.581098e-01 4.617005e-02 -4.241387e+00 126 130 10
6.586200e-01 -7.736340e-01 -3.993999e+00 120 86 12
-5.743449e-02 -6.349468e-01 -3.708509e+00 201 146 61
-1.149237e-01 -8.205999e-01 -3.964696e+00 231 193 112
-7.702459e-01 -7.872066e-01 -4.931759e+00 212 205 115
-3.590171e-01 -1.007018e+00 -4.336505e+00 216 171 90
-1.314573e-01 -1.084742e+00 -4.152292e+00 220 168 84
1.298073e+01 2.569766e+00 -1.075596e+01 203 201 116
1.068840e+01 3.267741e+00 -1.346161e+01 206 211 117
-3.443097e-01 7.231944e-01 -4.265844e+00 220 231 109
-3.476393e-01 7.239074e-01 -4.264167e+00 220 231 109
7.642961e-02 3.675130e-01 -3.601416e+00 151 142 15
-4.962345e-01 5.000575e-01 -4.557302e+00 113 131 11
-5.103402e-01 1.756040e-01 -4.420890e+00 151 171 41
-4.094314e-01 -7.480434e-01 -4.246344e+00 125 78 2
-6.973257e-01 -7.571988e-01 -4.769187e+00 211 190 99
1.580298e+01 3.381706e+00 -1.296261e+01 208 205 128
7.729615e-01 -5.208223e-02 -4.004516e+00 130 147 32
-6.497658e-01 -7.734617e-01 -4.485927e+00 144 102 18
9.724792e+00 9.346724e-01 -7.618419e+00 206 209 118
8.585006e-01 -2.137342e-01 -3.951907e+00 127 132 30
1.376078e+01 4.021478e+00 -1.418124e+01 219 218 128
1.065690e+01 4.074002e+00 -1.224361e+01 142 140 57
2.099507e+00 -1.277992e+00 -4.097537e+00 206 215 126
5.365009e-01 -3.276179e-01 -4.731649e+00 130 147 19
-5.882656e-01 -7.327944e-01 -4.419111e+00 170 135 48
-6.722698e-02 3.164308e-01 -4.300399e+00 155 176 59
-3.879717e-01 8.586343e-01 -4.422997e+00 214 224 99
1.679615e-01 4.748771e-01 -3.531589e+00 105 93 7
-3.214586e-02 3.814536e-01 -4.127622e+00 182 197 72
-5.138976e-01 4.495867e-01 -4.578257e+00 166 193 50
-4.811713e-01 3.819980e-01 -4.528869e+00 152 174 37
-5.093545e-01 2.791021e-01 -4.491957e+00 145 167 30
-2.516335e-01 1.159256e+00 -4.288705e+00 214 223 106
-2.998680e-02 1.809727e-01 -3.937280e+00 215 220 83
3.948201e-01 6.534317e-01 -3.480313e+00 151 161 38
-1.689843e-01 4.300285e-02 -4.150262e+00 153 189 40
-7.864102e-02 2.600093e-01 -4.315943e+00 67 87 0
1.924727e-02 -1.936834e-01 -3.669761e+00 104 112 3
6.762251e+00 4.483098e-01 -7.573835e+00 206 210 113
-4.688206e-01 5.285237e-01 -4.647456e+00 109 131 0
-5.973446e-01 4.885608e-01 -4.651335e+00 218 224 123
1.148536e+01 2.681345e+00 -1.197044e+01 205 207 108
1.674851e+00 -1.463502e+00 -3.260255e+00 215 221 125
-1.022263e+00 -6.288582e-01 -4.710269e+00 226 231 139
3.860271e+00 6.179295e+00 -1.953652e+01 192 181 73
3.860271e+00 6.179295e+00 -1.953652e+01 192 181 73
1.194367e-01 6.024892e-01 -3.392505e+00 193 198 72
3.768456e-02 5.144671e-01 -3.620085e+00 130 120 8
-3.510282e-01 6.661190e-01 -4.249938e+00 210 219 94
-2.672309e-01 -2.422881e-01 -3.911334e+00 146 156 34
-2.951218e-01 -1.821787e-01 -3.935610e+00 130 151 20
3.553337e+00 8.377683e+00 -2.354122e+01 188 179 76
1.440980e+01 3.792535e+00 -1.331371e+01 181 179 94
1.461463e+01 2.768526e+00 -1.183112e+01 203 203 117
-1.550082e-01 8.485245e-01 -4.176262e+00 238 249 118
-5.592214e-01 -4.054876e-01 -4.207610e+00 220 154 67
-3.858366e-01 8.398293e-01 -4.425891e+00 214 222 103
-4.102991e-01 -7.481972e-01 -4.245709e+00 126 78 0
-1.462595e+00 -7.093372e-01 -5.073256e+00 234 234 146
1.259958e+01 1.181682e+01 -3.981858e+01 174 163 48
1.010948e-01 3.171513e-01 -3.923683e+00 174 177 47
-7.100776e-01 -2.781400e-01 -4.182353e+00 195 149 53
-7.061749e-01 -3.029785e-01 -4.182857e+00 189 141 46
-1.549338e+00 -1.806285e+00 -5.578980e+00 215 219 135
3.466214e+00 5.075205e+00 -1.228840e+01 157 154 78
7.597368e+00 4.748310e+00 -1.543418e+01 170 155 52
1.365692e+01 1.041553e+01 -3.536493e+01 177 161 50
7.423242e+00 6.594752e+00 -2.257015e+01 178 162 52
-8.154086e-02 -3.968189e-01 -3.786456e+00 183 159 58
7.634343e+00 1.051956e+01 -2.688093e+01 160 157 74
8.807182e+00 7.924152e+00 -2.641979e+01 172 160 48
-1.593057e-01 -1.012286e+00 -4.102709e+00 186 141 58
2.251153e+00 5.285181e+00 -1.631915e+01 181 164 51
-6.432765e-01 -8.091195e-01 -4.450768e+00 166 131 37
1.601550e+01 5.611470e+00 -1.962209e+01 173 159 62
9.513864e-01 3.688219e+00 -1.247725e+01 222 226 126
8.706985e+00 5.029652e+00 -1.597192e+01 163 155 54
7.888153e+00 4.779049e+00 -1.564714e+01 166 153 53
4.224751e+00 4.809515e+00 -1.461924e+01 194 180 75
7.793400e+00 4.268759e+00 -1.425760e+01 176 166 65
8.155150e+00 4.223525e+00 -1.404578e+01 173 164 63
1.213824e+01 3.541362e+00 -1.345419e+01 213 217 122
-2.309531e-01 1.227193e+00 -4.791884e+00 211 222 118
7.236208e-01 -1.281654e+00 -4.173192e+00 186 178 97
1.550606e+01 7.048184e+00 -2.482080e+01 180 162 68
7.842954e+00 7.156458e+00 -1.996789e+01 184 169 76
6.697184e+00 6.660726e+00 -1.780356e+01 164 150 53
-1.412774e+00 9.791846e-01 -7.713911e-01 157 170 98
4.322373e+00 8.442109e+00 -2.281509e+01 162 150 50
-1.403748e-01 -6.523450e-01 -3.913959e+00 195 149 64
3.506619e+00 3.005954e+00 -9.402615e+00 172 158 59
-1.499380e-01 -1.192467e+00 -4.196251e+00 224 201 116
8.538253e+00 1.465488e+00 -6.753389e+00 204 203 119
-1.406861e-01 2.568234e-02 -3.892552e+00 226 232 103
1.478300e+01 2.429491e+00 -1.198749e+01 217 217 131
-1.574257e+00 -7.620843e-01 -4.919689e+00 227 230 141
-2.208266e-01 2.328560e-01 -4.317179e+00 119 121 15
-2.033981e-01 2.045963e-01 -4.307531e+00 101 94 0
-2.028238e-01 -8.789418e-01 -4.161248e+00 158 126 43
-5.257242e-01 -1.123268e+00 -4.194226e+00 209 210 116
5.685669e-01 1.257033e+00 -4.452215e+00 117 111 2
-7.210137e-02 6.804380e-01 -3.937739e+00 218 226 88
6.885369e-01 -5.745128e-02 -3.983227e+00 115 141 6
-5.434834e-01 1.207891e-01 -4.355834e+00 138 153 13
-2.108062e-01 -7.507671e-02 -3.843997e+00 109 116 5
-8.114330e-02 -3.023171e-01 -3.745475e+00 125 137 14
-2.740589e-01 -6.295476e-01 -3.988530e+00 182 137 52
-3.322065e-03 -1.102206e+00 -4.043865e+00 195 140 58
-3.045863e-01 6.304801e-01 -4.274143e+00 186 196 73
-1.406426e-02 5.014419e-01 -4.082437e+00 175 184 59
-2.780617e-02 2.600490e-01 -4.067237e+00 194 205 79
-4.151221e-01 2.439345e-01 -4.382289e+00 119 117 12
-4.950238e-01 1.054987e-01 -4.274522e+00 129 123 12
1.031858e+00 -6.861468e-01 -4.194251e+00 161 129 46
9.777334e-01 -9.617222e-01 -4.257323e+00 157 130 52
-3.336031e-01 -6.298581e-01 -4.118860e+00 176 129 47
-2.060440e-01 -6.810206e-01 -3.963284e+00 164 126 44
8.530686e-01 -1.205537e+00 -4.155522e+00 175 177 90
-3.234869e-01 -7.429826e-01 -4.123968e+00 164 121 40
-2.702303e-01 -7.946606e-01 -4.139349e+00 158 122 41
-6.464980e-01 -7.288378e-01 -4.476748e+00 172 135 49
7.316409e-01 1.244800e+00 -4.511046e+00 217 223 123
-2.655374e-01 1.006197e+00 -4.329102e+00 224 235 105
-7.100087e-02 7.312621e-01 -4.126972e+00 200 209 64
-7.216005e-02 4.880637e-01 -4.168201e+00 179 190 62
-8.487375e-02 4.090912e-01 -4.214947e+00 193 207 84
-6.888140e-01 -6.511160e-01 -4.675056e+00 227 197 106
-1.491395e-01 -7.831585e-01 -3.992897e+00 133 106 18
-7.146209e-01 -7.705740e-01 -4.613859e+00 193 161 68
1.351351e+01 2.178303e+00 -1.032979e+01 209 211 112
-1.243201e-01 5.431122e-01 -4.187631e+00 193 204 74
-1.190906e-01 7.420757e-02 -4.133140e+00 82 105 0
3.375341e+00 -1.191885e+00 -3.962503e+00 200 206 112
-4.566220e-01 8.689898e-02 -4.244414e+00 115 115 0
-5.496573e-01 5.419232e-02 -4.293913e+00 121 122 2
-2.164254e-01 -4.344335e-02 -4.037585e+00 157 190 37
2.911944e+00 -1.202847e+00 -3.893045e+00 202 207 113
1.655642e-02 -1.139051e+00 -4.009741e+00 204 151 67
-5.909811e-01 -1.019624e+00 -4.496369e+00 210 194 106
6.369186e-01 1.312245e+00 -4.536519e+00 135 133 28
4.630532e-01 1.158109e+00 -4.463722e+00 111 114 0
1.982694e-01 5.960109e-01 -3.427324e+00 181 187 64
2.329945e+00 -1.111955e+00 -4.143264e+00 194 204 108
1.325921e+00 -1.137547e+00 -4.203959e+00 189 202 112
7.848564e-01 -1.250663e+00 -3.974984e+00 193 198 108
9.434402e-02 -1.229274e+00 -4.055718e+00 173 134 49
8.385137e+00 2.455999e+00 -1.051722e+01 207 213 115
-9.216974e-03 1.742759e+00 -9.329181e+00 224 229 139
-3.898030e-01 1.533842e+00 -8.741612e+00 226 230 143
4.373004e+00 -3.911800e-01 -5.591509e+00 204 208 113
-3.257457e-01 8.096925e-01 -4.242812e+00 208 218 85
2.678037e+00 -1.017300e+00 -4.360544e+00 212 218 118
1.678256e+00 -1.244713e+00 -4.050200e+00 206 214 119
-4.809170e-02 9.643895e-01 -4.213493e+00 236 246 111
8.228421e-05 5.341440e-01 -3.673884e+00 108 105 0
1.612114e-01 7.506466e-01 -3.665381e+00 215 223 86
1.609470e+01 3.534282e+00 -1.297271e+01 137 135 59
-4.221866e-01 -4.114532e-01 -3.959131e+00 214 161 67
-3.400251e-01 -7.429343e-01 -4.167529e+00 184 133 52
-4.448797e-02 -1.155779e+00 -4.091280e+00 215 157 75
1.454183e+01 3.689133e+00 -1.349966e+01 210 208 121
-2.925288e-01 -1.116723e+00 -4.170844e+00 225 192 107
1.574627e+00 4.765227e-01 -1.917391e+00 140 140 70
1.549888e+01 5.639857e+00 -1.799999e+01 129 117 18
1.336857e+01 4.257973e+00 -1.430958e+01 214 215 123
-3.956227e-01 5.519260e-01 -4.498760e+00 183 194 64
-5.495592e-01 2.307395e-01 -4.593156e+00 131 149 11
-3.889881e-01 -6.991245e-02 -4.036302e+00 152 181 29
-6.294444e-01 -4.913277e-02 -4.243019e+00 148 162 22
-6.482709e-01 -5.252010e-01 -4.309215e+00 181 135 42
1.006126e+01 8.116078e+00 -2.230558e+01 163 151 53
5.609031e-01 1.252469e+00 -4.484067e+00 109 114 0
8.387217e-02 1.006750e+00 -4.195066e+00 223 231 86
-4.129996e-02 6.146473e-01 -3.579033e+00 184 191 57
-4.358755e-02 5.119723e-01 -4.115900e+00 193 204 73
-4.358755e-02 5.119723e-01 -4.115900e+00 193 204 73
2.827153e-01 1.952145e-01 -3.889612e+00 104 78 0
-5.048474e-01 3.209541e-01 -4.487617e+00 137 159 23
-1.480202e-01 1.840241e-01 -4.270510e+00 103 113 17
-5.324195e-01 2.672277e-01 -4.588843e+00 144 166 26
-5.298302e-01 1.857465e-01 -4.523162e+00 125 152 9
-5.102840e-01 7.594638e-02 -4.244129e+00 200 199 83
-2.078200e-01 -7.109154e-02 -3.828721e+00 113 117 6
-4.527757e-01 -1.112433e-01 -4.094618e+00 135 166 23
-8.100308e-01 -2.576731e-01 -4.245412e+00 213 172 67
-5.810252e-01 -4.331687e-01 -5.538752e+00 192 185 91
-1.708176e-01 -7.213682e-01 -3.899815e+00 198 166 77
-2.701497e-01 -7.988837e-01 -4.134857e+00 167 131 46
-1.071245e-01 -8.837935e-01 -3.987905e+00 176 141 54
-1.363433e-01 -8.843082e-01 -4.027805e+00 180 144 60
8.127841e+00 6.638077e+00 -1.903262e+01 166 152 55
1.394493e+01 3.986653e+00 -1.408192e+01 216 220 123
1.312900e+01 3.926399e+00 -1.406711e+01 211 215 118
4.842088e-01 2.697906e+00 -8.208232e+00 178 164 57
-3.629080e-01 9.611656e-01 -4.360286e+00 214 223 108
-7.906829e-03 5.699322e-01 -3.560604e+00 123 127 7
-4.607147e-01 9.073487e-02 -4.250772e+00 120 124 1
-4.607147e-01 9.073487e-02 -4.250772e+00 120 124 1
-6.025191e-01 2.413939e-01 -5.323003e+00 227 220 122
4.775363e-01 -1.735108e-01 -3.822366e+00 100 112 2
-2.171205e-01 -5.344170e-02 -3.889356e+00 113 122 3
-5.882922e-01 9.980713e-03 -4.258672e+00 144 160 20
-5.091965e-01 -2.143081e-01 -5.396866e+00 155 128 33
-5.227546e-01 -2.444495e-01 -5.475953e+00 214 207 109
-9.317166e-02 -7.315182e-01 -3.898323e+00 161 124 35
1.146676e+00 -1.128808e+00 -4.354654e+00 169 176 86
-3.930956e-01 -9.295015e-01 -4.260924e+00 181 149 61
-3.346890e-01 -9.708820e-01 -4.256157e+00 168 136 46
-7.656441e-01 -8.896777e-01 -4.684937e+00 209 197 101
4.375607e-01 5.914823e-01 -3.507429e+00 208 215 108
-1.814806e-02 7.657768e-01 -4.092401e+00 236 245 94
-3.040553e-02 6.476255e-01 -3.854075e+00 161 168 30
5.172343e-01 3.139607e-01 -3.761405e+00 218 211 120
5.172343e-01 3.139607e-01 -3.761405e+00 218 211 120
1.056567e+00 -3.963706e-01 -3.965225e+00 154 133 42
3.745168e+00 -1.398719e+00 -3.069323e+00 203 215 117
2.955975e+00 -1.216247e+00 -2.603608e+00 203 215 117
5.897544e-01 -9.786781e-01 -4.093905e+00 119 99 12
-7.009993e-01 -6.260374e-01 -4.641824e+00 240 218 124
1.908306e-01 -9.703932e-01 -3.970349e+00 128 85 1
-7.010563e-01 -7.760749e-01 -4.617965e+00 193 164 70
-3.869065e-01 -9.956102e-01 -4.283099e+00 202 165 77
-3.243951e-01 -1.072227e+00 -4.329259e+00 167 142 53
-2.723704e-01 -1.094188e+00 -4.238475e+00 171 145 55
6.787375e+00 5.917733e+00 -1.566375e+01 161 149 51
1.212171e+01 3.725261e+00 -1.453916e+01 202 208 109
1.772877e-01 7.924544e-01 -3.436740e+00 198 210 74
1.748181e-01 7.921535e-01 -3.433974e+00 198 210 74
-4.300878e-01 9.005589e-01 -4.476577e+00 236 247 128
-5.590861e-01 1.059902e+00 -8.365807e+00 219 224 134
-2.139213e-01 7.383008e-02 -4.214221e+00 164 184 51
7.449584e-02 -1.289856e-01 -3.659157e+00 102 108 0
-5.285627e-01 6.250330e-02 -4.310582e+00 120 126 0
-6.153661e-01 5.456632e-02 -4.340589e+00 161 172 34
-7.721932e-01 -2.978191e-01 -4.217584e+00 176 128 25
-6.419217e-01 -3.351606e-01 -5.705185e+00 207 213 115
-1.321174e+00 -2.206858e-01 -6.043315e+00 226 233 139
-6.648903e-01 -4.529046e-01 -5.505840e+00 196 193 100
4.619941e-01 -9.341754e-01 -4.039300e+00 185 160 76
8.166133e+00 5.299302e+00 -1.695901e+01 169 157 51
1.101554e+01 1.457579e+00 -9.308892e+00 209 213 118
4.592574e-01 3.992530e-01 -3.704796e+00 100 86 0
1.032102e-01 3.649593e-01 -3.812271e+00 124 113 0
-4.657876e-01 1.193548e+00 -8.539663e+00 224 229 139
-4.657876e-01 1.193548e+00 -8.539663e+00 224 229 139
1.289247e-01 2.735369e-01 -3.945905e+00 188 181 50
9.849486e-02 -8.855982e-01 -3.930724e+00 180 133 51
-5.357175e-02 -8.619239e-01 -3.925972e+00 135 97 12
1.183994e+01 2.364892e+00 -1.100065e+01 203 207 112
-5.710708e-01 1.894761e-01 -5.255395e+00 185 158 60
1.062549e+00 -4.832211e-01 -4.010626e+00 146 116 28
3.225545e+00 -1.293083e+00 -3.809646e+00 210 216 120
-2.656111e+00 -5.605317e-01 -5.228622e+00 232 235 146
-1.055424e+00 -1.088430e+00 -4.565910e+00 214 223 130
8.354193e-01 -2.236246e-01 -3.944130e+00 119 127 16
3.829787e+00 -1.241090e+00 -4.078986e+00 201 207 111
-2.112886e-01 -1.394087e+00 -3.206417e+00 212 223 127
-2.787383e+00 -6.943124e-01 -4.670823e+00 237 240 151
3.254625e-01 5.009991e-01 -3.621164e+00 82 70 1
3.254625e-01 5.009991e-01 -3.621164e+00 82 70 1
4.564080e-02 5.300640e-01 -3.755381e+00 107 97 2
-7.025178e-01 -1.767495e-01 -4.287332e+00 215 182 74
1.492607e+00 -1.200192e+00 -4.258131e+00 185 200 105
4.954854e-01 1.445468e+00 -4.421861e+00 211 214 111
3.663761e-01 1.122356e+00 -4.255306e+00 70 67 0
-4.000090e-01 3.234656e-01 -4.930672e+00 129 142 11
1.823563e-01 7.733360e-01 -3.679327e+00 234 243 100
-5.239374e-01 1.241774e+00 -9.100420e+00 221 226 136
-1.047199e+00 -7.490186e-01 -4.781432e+00 221 231 135
-6.139117e-01 -6.833663e-01 -4.494321e+00 189 145 56
1.515995e+01 2.248728e+00 -1.054387e+01 129 119 33
-4.533682e-01 7.923586e-01 -4.421189e+00 206 217 89
-4.368254e-01 7.508110e-01 -4.403719e+00 205 214 85
-3.946965e-01 6.338861e-01 -4.712748e+00 208 222 101
-4.485503e-01 4.006035e-01 -4.525019e+00 197 215 79
1.592184e+01 2.536316e+00 -1.145782e+01 121 124 39
1.573914e+01 2.147557e+00 -1.079705e+01 95 80 1
7.919088e+00 6.272888e+00 -1.896795e+01 130 121 20
-4.704936e-01 4.613702e-01 -4.583740e+00 130 152 15
-5.045578e-01 4.491537e-01 -4.600679e+00 164 191 54
-2.420503e-01 3.237296e-01 -4.456937e+00 123 143 17
-4.982836e-01 1.070343e-01 -4.270533e+00 123 117 9
1.674722e-01 -1.006091e+00 -3.929553e+00 165 123 47
1.567202e+01 3.511773e+00 -1.267413e+01 138 152 66
-3.970258e-01 7.946528e-01 -4.357610e+00 202 211 82
3.284767e-02 4.702962e-01 -4.026941e+00 165 172 56
-1.378699e-02 3.006195e-01 -4.070597e+00 201 212 90
-5.081881e-01 4.481438e-01 -4.592463e+00 165 192 55
-6.189671e-01 1.992970e-02 -4.557857e+00 200 173 68
-6.698673e-01 -1.641359e-01 -4.233459e+00 199 159 65
-2.217067e-02 7.681477e-01 -4.100984e+00 230 239 96
4.602080e-01 4.024951e-01 -3.436235e+00 205 216 120
-1.380390e-01 3.290340e-01 -4.383214e+00 78 96 0
1.643145e+01 2.895373e+00 -1.216888e+01 125 132 52
7.938121e+00 6.208574e+00 -1.892401e+01 135 126 23
7.938121e+00 6.208574e+00 -1.892401e+01 135 126 23
5.803040e+00 5.810907e+00 -1.764585e+01 150 136 31
-2.168988e-01 3.089867e-01 -4.395325e+00 155 177 52
1.646938e+00 -1.166889e+00 -4.196475e+00 208 219 125
3.780797e+00 3.547428e+00 -1.349810e+01 210 216 123
5.321892e-02 4.053969e-01 -3.989200e+00 188 195 74
1.107520e+01 1.087094e+00 -8.532076e+00 202 206 111
1.002512e+01 3.834583e+00 -1.306023e+01 162 154 48
-4.693837e-02 6.993899e-01 -1.737463e+00 117 90 1
7.617270e+00 6.813131e-01 -4.712495e+00 119 96 0
9.862747e-02 8.916631e-01 -3.566828e+00 226 238 105
