ply
format ascii 1.0
element vertex 718
property float x
property float y
property float z
property float nx
property float ny
property float nz
property uchar diffuse_red
property uchar diffuse_green
property uchar diffuse_blue
end_header
-1.36242 3.7139 -13.4148 -0.634753 0.413775 0.652595 221 228 134
-1.32748 3.46838 -12.7509 -0.37676 -0.432006 0.819404 217 225 129
-0.0811534 0.671576 -3.93983 -0.972214 -0.161265 0.169688 192 200 72
-0.00622715 0.651476 -3.84059 -0.801958 -0.567813 0.185611 146 151 28
-0.0269791 0.654839 -3.89203 -0.670794 -0.713712 0.201622 145 150 22
-0.00836572 0.648974 -3.87803 -0.684282 -0.645468 0.339308 143 148 23
0.049018 0.547161 -3.5161 -0.560329 -0.778588 0.282546 123 116 4
0.0809615 0.523517 -3.51885 -0.564449 -0.76856 0.301185 119 110 1
0.29127 0.526328 -3.53393 0.308151 -0.669219 0.676158 67 53 1
5.09696 2.16812 -10.4326 -0.959677 0.247388 0.13349 213 219 124
5.0959 2.16774 -10.4304 -0.959959 0.246458 0.133181 212 219 125
8.12839 1.4228 -9.14499 -0.0700251 0.62229 0.779649 207 214 117
8.71547 1.35584 -9.08984 -0.915158 0.400063 0.0493524 207 213 114
8.95147 1.21655 -8.75297 0.0564071 0.27641 0.959383 206 211 113
9.28637 1.33918 -8.98763 -0.0839564 0.56136 0.823302 211 213 116
9.40047 1.29535 -8.97738 -0.0648588 0.570119 0.818998 208 212 116
9.14913 1.21701 -8.77817 0.0404874 0.338059 0.940254 208 211 114
9.41534 1.29417 -8.98586 -0.0868206 0.627709 0.773592 209 212 116
10.6122 1.05447 -8.52001 -0.263592 0.543418 0.797005 207 211 115
10.5148 1.0335 -8.42618 -0.212659 0.33289 0.918673 207 212 115
10.8962 1.00547 -8.51532 -0.184868 0.624936 0.758472 206 211 115
-1.89166 3.43356 -12.758 -0.61346 0.378004 0.693384 217 225 130
-1.81795 3.54355 -13.2447 -0.660078 0.342189 0.668733 217 225 129
-1.81964 3.57678 -13.1758 -0.463279 0.487066 0.740364 217 226 130
-0.539038 0.879126 -4.64852 -0.869725 0.251129 0.424867 214 224 124
-0.551669 0.901441 -4.66164 -0.824277 0.351096 0.444184 213 224 124
-0.595074 0.839415 -4.53834 0.3185 -0.249701 0.914444 214 225 125
-0.396289 0.753938 -4.31681 -0.928653 0.193481 0.316495 195 206 81
-0.387274 0.732621 -4.28552 -0.933273 -0.225638 0.279446 192 203 79
-0.122741 0.658269 -4.11649 -0.932188 0.252527 0.259337 178 187 59
-0.085735 0.670501 -4.09946 -0.812299 -0.556687 0.173981 181 190 60
-0.0939011 0.628725 -3.97584 -0.979646 -0.146293 0.137446 148 155 31
-0.0792644 0.641375 -3.95756 -0.943775 -0.284654 0.168107 148 155 30
-0.0602118 0.623766 -3.93264 -0.943932 -0.316063 0.0953741 132 137 15
0.470195 0.492745 -3.66033 0.478337 -0.549066 0.685362 88 58 1
1.0748 0.643363 -4.42393 -0.567384 -0.145889 0.810427 212 223 129
4.41485 1.96326 -9.79261 -0.110227 -0.925617 0.362055 208 219 129
5.52915 1.63218 -9.23406 0.380608 -0.454638 0.805259 209 216 122
6.10171 1.61832 -9.32553 -0.136116 0.587597 0.797622 209 215 119
9.19455 1.15469 -8.70157 -0.0857337 0.561281 0.823173 204 210 112
9.27019 1.09069 -8.60577 -0.0840617 0.537615 0.838989 205 209 112
9.27297 1.09073 -8.60748 -0.084274 0.537078 0.839312 205 209 112
9.37462 1.06089 -8.40975 -0.626917 0.753885 0.196551 206 211 113
9.42114 0.953284 -8.27024 -0.101237 0.387223 0.916411 209 213 116
9.74635 0.835369 -8.00303 -0.246824 -0.575384 0.779751 210 214 119
10.1806 0.913153 -8.29255 -0.0865477 -0.471488 0.877615 211 215 118
10.3463 0.912418 -8.35355 -0.103675 0.203154 0.973643 210 215 118
10.6087 0.91903 -8.40653 -0.19544 0.589364 0.783871 210 215 118
10.7826 0.900262 -8.47421 -0.123052 0.377319 0.917872 210 215 119
10.6012 0.85429 -8.17624 -0.142128 0.439724 0.886816 208 213 117
-0.382688 0.722731 -4.29226 -0.974372 -0.0260206 0.223433 190 200 77
-0.333067 0.690005 -4.27901 -0.960312 -0.189668 0.204514 186 196 73
-0.31795 0.701985 -4.2436 -0.933032 -0.329922 0.143534 185 195 71
-0.0571432 0.586196 -4.02765 -0.938281 -0.242586 0.246537 161 169 47
-0.0300826 0.590978 -3.9446 -0.732171 -0.617697 0.287013 145 149 27
-0.0525371 0.603232 -3.96935 -0.718234 -0.68543 0.119689 142 148 25
0.0572798 0.560388 -3.93613 -0.712951 -0.688568 0.132569 136 135 19
0.0673321 0.544838 -3.8972 -0.841477 -0.498621 0.208072 117 112 12
0.161065 0.434449 -3.56817 -0.534381 0.071247 0.842236 119 106 2
1.06013 0.599296 -4.39369 -0.274277 0.744152 0.609106 206 219 126
5.37732 1.50691 -9.06751 0.149512 -0.168707 0.974261 211 218 125
5.8188 1.20425 -8.28487 -0.284668 -0.892179 0.350686 206 213 117
8.37916 1.09235 -8.6243 -0.460202 0.732909 0.501057 209 214 116
8.73462 1.11256 -8.72773 -0.319783 0.776975 0.542262 208 213 115
8.73462 1.11256 -8.72773 -0.319783 0.776975 0.542262 208 213 115
8.63792 1.03234 -8.52832 -0.261073 0.758365 0.597263 209 214 116
9.4272 1.01733 -8.75627 -0.0542135 0.489833 0.870129 209 212 117
9.42988 1.0342 -8.72419 -0.102933 0.596993 0.795616 209 211 116
9.28963 0.9649 -8.36919 -0.905921 0.240005 0.348863 207 212 114
9.3099 0.911099 -8.29406 -0.210932 0.728449 0.65182 208 213 115
-0.4204 2.58952 -10.9597 -0.914156 0.0747641 0.398409 221 225 139
-0.425782 2.53366 -10.7693 -0.916877 0.0651212 0.393823 220 225 140
-0.404505 2.46472 -10.489 -0.573324 -0.773097 0.271331 220 225 140
0.142795 2.55081 -10.9351 -0.729937 0.450004 0.514479 217 225 132
-0.510116 0.812509 -4.82074 -0.913282 -0.305255 0.269694 214 221 124
-0.445464 0.709869 -4.45741 -0.920214 -0.171697 0.351747 182 194 71
-0.376389 0.655119 -4.33537 -0.846085 -0.432913 0.31101 182 192 72
-0.375245 0.664158 -4.32159 -0.858688 -0.468215 0.208398 182 192 71
-0.0519363 0.580949 -4.10832 -0.961551 -0.151666 0.228946 170 178 56
0.017069 0.568647 -4.04435 -0.30359 -0.734992 0.606316 173 178 54
0.0756213 0.524028 -3.93764 -0.889857 -0.414318 0.191038 139 138 24
0.121866 0.512815 -3.90099 -0.429682 -0.475622 0.767566 108 99 4
0.128987 0.509798 -3.94124 -0.815749 0.340882 0.467283 127 121 11
0.0905673 0.456928 -3.77498 -0.952446 -0.219446 0.2114 111 100 3
0.220078 0.400713 -3.57562 -0.426608 -0.549551 0.718331 114 97 1
3.85806 1.61492 -9.1634 0.312906 -0.227907 0.922035 214 220 127
6.19223 1.04925 -8.11578 -0.905131 0.424526 -0.0226925 205 211 115
8.64299 1.03195 -8.71045 -0.028875 0.523778 0.851365 211 215 118
8.67112 1.03334 -8.73109 -0.0265838 0.42251 0.905968 210 215 118
0.906717 2.11112 -10.2857 -0.8816 -0.405537 0.241498 219 226 136
-0.46384 0.742812 -4.78972 -0.892579 -0.353784 0.279535 213 223 122
-0.457965 0.727539 -4.70462 -0.963983 -0.122581 0.23603 212 223 114
-0.452656 0.764545 -4.77072 -0.919399 -0.333012 0.209305 202 211 105
-0.47596 0.699786 -4.47761 -0.958777 -0.160805 0.234281 193 205 85
-0.365245 0.625625 -4.34431 -0.769794 -0.549892 0.324093 177 187 67
-0.316394 0.609056 -4.30035 -0.72082 -0.603466 0.340949 181 190 68
0.133231 0.459613 -3.91005 -0.464233 0.448383 0.763833 119 112 9
0.107651 0.428712 -3.81039 -0.848923 -0.509718 0.139702 106 94 1
0.128467 0.434251 -3.86965 -0.941491 0.0970144 0.322775 116 108 4
0.119491 0.417498 -3.8267 -0.988534 -0.106939 0.106609 111 101 1
0.105611 0.362267 -3.64018 -0.905875 -0.419976 0.0548708 133 118 6
0.133206 0.351796 -3.60765 -0.760713 -0.559233 0.329505 125 109 2
0.280119 0.372659 -3.6202 0.365469 -0.597458 0.713776 107 83 4
4.60394 1.34305 -8.82952 -0.849788 -0.526901 -0.0153674 206 213 115
8.50812 0.782271 -8.1558 0.112103 0.284285 0.952163 212 214 118
10.5053 0.593459 -8.34041 -0.00953811 0.0810142 0.996667 209 213 117
-0.840605 2.29041 -10.3349 -0.737219 -0.560854 0.376765 220 226 136
-0.499532 0.673986 -4.68036 -0.951433 -0.160609 0.262639 201 216 106
-0.359177 0.6108 -4.363 -0.718526 -0.604859 0.343316 176 186 63
-0.314566 0.583459 -4.35819 -0.676496 -0.714726 0.177541 170 180 53
0.270511 0.299609 -3.58165 -0.973906 -0.213324 0.0774539 80 61 3
0.348889 0.345728 -3.7064 0.0463319 -0.795228 0.604537 79 46 3
0.589331 0.339207 -3.77016 -0.00897482 -0.509771 0.860264 166 158 61
0.857909 0.343452 -3.99865 0.33611 -0.67514 0.656671 189 203 98
4.97375 1.25526 -8.82913 -0.141109 0.733577 0.664796 206 213 118
-0.724916 2.06893 -9.97193 -0.646213 0.474909 0.597387 216 223 130
-0.630193 2.01378 -9.80575 -0.685339 0.428985 0.588458 216 224 131
-0.638469 2.03681 -9.9764 -0.657537 0.479944 0.580775 217 224 134
-0.640127 2.03213 -9.94826 -0.666724 0.500949 0.551842 219 224 136
-0.545386 2.04216 -9.78775 -0.635464 0.507033 0.582325 215 224 130
-0.39957 2.01559 -9.83538 0.612312 0.13097 0.779693 219 224 133
-0.26455 0.528478 -4.39498 -0.616575 -0.681218 0.394687 133 145 24
0.146903 0.364902 -3.86648 -0.935584 -0.329001 0.128221 122 113 6
0.147401 0.351699 -3.81972 -0.85259 -0.502665 0.142892 113 99 3
0.148961 0.351451 -3.81691 -0.848848 -0.507239 0.148878 112 98 3
0.150246 0.350275 -3.81754 -0.853538 -0.501593 0.140991 112 98 3
0.163716 0.342427 -3.79081 -0.604734 -0.696276 0.386648 129 116 3
0.285049 0.307079 -3.70716 0.00121266 -0.792142 0.610335 94 62 1
0.483257 0.291356 -3.77884 0.528953 -0.201835 0.824301 106 84 7
0.927665 0.347521 -4.21734 0.419789 -0.587184 0.692092 189 204 100
0.998071 0.330919 -4.22836 -0.29578 -0.862034 0.411596 210 221 125
5.16059 0.880337 -8.11644 0.266905 0.33118 0.905031 209 216 120
5.73419 0.797711 -7.91324 -0.571056 0.581028 0.579915 209 216 119
5.48514 0.68644 -7.47807 -0.427199 -0.810414 0.400912 209 217 121
6.23759 0.694845 -7.84025 -0.448764 -0.856922 0.253564 208 215 118
7.53536 0.464474 -7.50916 -0.720016 0.672242 0.172245 210 214 117
-0.656677 1.98599 -9.80214 -0.656962 0.511885 0.553512 219 224 136
-0.474104 0.571278 -4.55745 -0.968544 -0.0898722 0.232047 189 205 77
-0.232547 0.494732 -4.39734 -0.668196 -0.689526 0.279406 112 127 10
-0.203897 0.462549 -4.37142 -0.809772 -0.503863 0.300652 116 131 18
-0.170149 0.47709 -4.32677 -0.877662 -0.399721 0.264449 153 166 46
0.20815 0.310036 -3.83343 -0.337128 -0.376951 0.862701 115 94 5
0.212532 0.310206 -3.83281 -0.286654 -0.32719 0.900431 114 93 5
0.32568 0.258866 -3.77045 0.0498942 -0.785277 0.617131 97 62 5
0.883213 0.309748 -4.1954 0.266117 -0.732439 0.626669 175 189 83
0.937983 0.299295 -4.22602 0.253863 -0.732705 0.631425 169 182 78
0.869431 0.301259 -4.07618 0.395163 -0.611056 0.685899 166 180 73
3.49662 0.930992 -7.75474 -0.429238 -0.860325 0.274947 207 219 131
5.02445 0.772533 -7.9523 0.166293 0.474428 0.864445 207 212 115
5.53249 0.621527 -7.58769 -0.163604 0.701102 0.694039 209 216 119
5.79219 0.582116 -7.57328 0.201739 0.237927 0.950101 212 218 122
6.53814 0.555233 -7.68566 -0.904398 0.167254 0.392543 207 214 115
-0.774336 1.76947 -9.4807 -0.607034 0.563371 0.560467 224 229 140
-0.68333 1.81226 -9.70079 -0.136505 0.524526 0.84038 221 228 136
-0.330968 0.465791 -4.5034 0.0672073 0.199542 0.977582 112 122 10
-0.258595 0.470879 -4.47212 -0.36416 0.0711666 0.928613 79 92 2
-0.150665 0.438607 -4.32693 -0.82775 -0.483228 0.285169 144 158 40
-0.0539744 0.34666 -4.15822 -0.97363 -0.0974736 0.206259 199 214 93
0.86347 0.279075 -4.19277 0.0167531 -0.790954 0.611647 145 156 47
3.56444 0.862336 -7.72853 -0.392807 -0.86258 0.318839 209 219 127
4.98278 0.722636 -7.98662 -0.103374 0.58773 0.802426 207 215 118
5.34017 0.656383 -7.77822 -0.907503 0.403104 0.118086 209 216 119
5.55679 0.601536 -7.75199 -0.75236 0.631622 0.187107 209 216 119
5.5869 0.56474 -7.59182 -0.0572108 0.692115 0.719516 210 215 118
5.65216 0.506191 -7.48975 -0.0293401 0.621876 0.782566 208 215 118
5.97212 0.493652 -7.50504 0.0534553 0.276553 0.959511 209 216 118
7.03403 0.212188 -6.99173 0.0193744 0.136885 0.990397 209 213 117
7.1737 0.288977 -7.1334 0.0399784 0.0940177 0.994768 210 214 117
7.12969 0.209632 -6.8824 -0.284249 -0.652829 0.702151 209 214 117
7.1537 0.212764 -6.90314 -0.281814 -0.651399 0.704457 209 214 117
7.11434 0.207797 -6.86977 -0.279609 -0.647374 0.709032 209 214 117
7.16691 0.170843 -6.91284 -0.635993 -0.683768 0.357734 209 214 117
7.13956 0.175786 -6.8964 -0.354289 -0.711456 0.606885 209 214 116
7.24226 0.185723 -6.93376 -0.200689 -0.647831 0.734873 209 214 116
-1.60418 1.9303 -9.88483 -0.686289 0.314855 0.655648 222 228 133
-1.36917 1.75501 -9.44081 0.432976 -0.0794263 0.897899 222 229 136
-1.29972 1.75511 -9.45873 0.241124 -0.0542155 0.968979 222 230 137
-0.788674 1.67571 -9.22308 -0.533096 0.57976 0.616188 219 227 135
-0.690141 1.72395 -9.53599 0.0039869 0.604222 0.796806 221 227 137
-0.229759 1.5155 -8.98835 -0.390987 -0.808036 0.440689 220 226 138
-0.484797 0.462085 -4.54516 -0.942928 0.102945 0.316685 187 206 72
-0.0522766 0.272465 -4.05994 -0.564633 0.666381 0.486956 194 207 81
0.184877 0.237207 -3.92556 -0.210464 -0.254233 0.943965 150 139 17
0.178683 0.242588 -3.93561 -0.124906 -0.150889 0.980628 154 142 19
0.458927 0.169988 -3.78789 0.413469 -0.612288 0.673904 89 75 2
0.863245 0.241344 -4.21431 0.062443 -0.515989 0.854316 117 126 24
1.06829 0.21241 -4.32377 -0.535429 -0.174748 0.826305 78 75 3
3.967 0.586312 -7.09978 -0.481844 -0.848692 0.218056 207 218 121
4.80328 0.62307 -7.90632 -0.463313 -0.802046 0.376912 210 219 123
4.59122 0.576519 -7.41112 -0.329612 -0.882863 0.334529 208 218 120
5.40596 0.594331 -7.78346 -0.381343 0.623203 0.682785 208 216 117
5.50607 0.520917 -7.60256 0.0673907 0.489592 0.869344 207 214 116
5.5143 0.534492 -7.59187 0.069978 0.462378 0.883917 207 214 116
5.40651 0.532116 -7.56055 0.0818441 0.377903 0.92222 208 215 118
5.49468 0.445004 -7.39959 0.00277008 0.655597 0.755106 211 215 119
5.53761 0.467142 -7.44759 0.02499 0.633518 0.773324 209 215 117
5.69096 0.48655 -7.53772 0.155697 0.172952 0.972546 213 216 122
6.41469 0.230714 -7.02297 -0.0958663 0.692079 0.715427 208 215 117
6.92355 0.162302 -6.99943 -0.278739 -0.568072 0.774338 206 211 114
7.07549 0.229001 -7.19072 -0.158351 -0.519892 0.839427 207 213 116
6.86537 0.127579 -6.9157 -0.161637 -0.495943 0.853179 205 210 113
6.89282 0.145052 -6.89452 -0.00194055 -0.362994 0.93179 209 211 116
6.76009 0.0853558 -6.64546 -0.0837959 -0.621146 0.779202 210 211 118
6.81617 0.146176 -6.74757 -0.172603 -0.787261 0.59197 211 212 119
7.17709 0.162538 -6.92484 -0.616353 -0.741049 0.266374 209 214 115
7.19538 0.15922 -6.93585 -0.629332 -0.758473 0.169292 208 214 115
7.69951 0.0396278 -6.896 -0.284857 0.803489 0.522745 209 213 118
7.80781 0.0463271 -6.87834 0.0715524 0.0498751 0.996189 209 212 118
8.05184 0.00349694 -6.97158 -0.175384 0.746237 0.642161 207 213 117
8.15375 0.00627909 -6.89894 -0.56618 0.766081 0.304239 206 212 116
-2.32769 1.8612 -9.55157 -0.198829 0.705035 0.68073 222 226 137
-1.7218 1.85963 -9.80792 0.717959 0.183682 0.671413 222 228 136
-1.53814 1.80691 -9.72774 -0.599866 0.418299 0.682046 221 227 133
-1.50776 1.73313 -9.51937 -0.262417 0.0814361 0.961512 220 225 130
-1.38863 1.71194 -9.29572 0.499146 0.472297 0.726491 221 228 134
-1.24687 1.69356 -9.41045 -0.791437 0.0899439 0.604597 222 229 135
-0.0705482 1.43043 -9.02475 0.193446 0.278553 0.940737 215 224 132
-0.0182139 1.50447 -9.1446 0.0762822 0.413806 0.907164 216 225 134
-0.665422 0.440943 -4.53072 0.146182 0.317737 0.936843 216 229 128
-0.508126 0.559132 -5.13425 -0.897765 -0.318265 0.304508 216 225 128
0.479595 0.129791 -3.87612 0.299218 -0.708953 0.638634 73 66 2
0.479595 0.129791 -3.87612 0.299218 -0.708953 0.638634 73 66 2
0.479595 0.129791 -3.87612 0.299218 -0.708953 0.638634 73 66 2
3.93963 0.750477 -8.07806 -0.997484 -0.0326277 0.062942 212 221 128
3.95196 0.518934 -7.15458 -0.549941 -0.815193 0.181729 209 220 123
4.51377 0.483065 -7.36668 0.0443227 0.582132 0.811886 211 219 123
6.90715 0.116811 -6.96955 -0.320776 -0.626806 0.710083 205 211 113
6.90152 0.124717 -6.94544 0.0518397 0.31389 0.948043 206 210 114
6.649 0.037008 -6.70423 0.00983435 -0.56092 0.827812 208 210 117
6.6677 0.0558176 -6.70079 0.025924 -0.529782 0.847737 208 210 117
7.01856 -3.77819e-05 -6.59232 0.0169474 0.160965 0.986815 208 212 117
7.10765 -0.0479356 -6.62797 -0.0541823 0.310125 0.949151 204 211 114
-2.40878 1.76814 -9.37968 -0.286025 0.668992 0.686032 224 230 138
-1.78454 1.66964 -9.33829 -0.099773 -0.905003 0.413539 222 228 136
-0.558029 0.394107 -4.50794 -0.539272 -0.169892 0.824816 150 170 37
-0.143217 0.276815 -4.37198 -0.585802 0.0852053 0.805963 110 124 11
-0.110893 0.278538 -4.33048 -0.774501 0.265857 0.573993 76 92 3
0.440502 0.0899195 -3.8971 0.303978 -0.704258 0.641574 68 69 3
1.31921 0.148967 -4.48698 -0.264427 -0.858162 0.440041 209 218 128
4.10115 0.293039 -6.6125 0.132336 -0.71653 0.684888 208 217 124
6.90649 -0.154243 -6.17909 -0.693536 -0.715833 0.0811818 207 213 117
6.96395 -0.184235 -6.13976 -0.496979 0.330455 0.802379 208 213 118
6.89171 -0.197471 -6.07716 -0.603237 -0.734942 0.309783 207 212 117
-1.55526 1.39606 -8.72688 0.211975 -0.903134 0.373385 218 227 133
0.0943834 1.1496 -8.52597 0.314578 0.599078 0.736306 219 228 136
0.07885 1.09042 -8.31727 -0.546756 -0.758054 0.355544 218 227 136
-0.0562287 0.12012 -3.89142 -0.327723 0.739305 0.58824 172 175 38
-0.0708242 0.0990859 -3.81475 -0.0687205 0.753649 0.653675 154 148 7
0.626895 0.0662354 -4.00932 0.45414 -0.413851 0.788976 73 79 2
0.669836 0.0671472 -4.05561 0.214285 -0.666402 0.714136 93 100 10
1.29939 0.110723 -4.61038 0.106658 -0.671516 0.733274 196 191 102
3.26585 0.557022 -7.74251 0.316751 0.0281171 0.948092 212 220 126
6.87829 -0.304788 -6.09242 -0.267646 0.3241 0.907372 208 211 117
-2.5832 1.53839 -9.06275 -0.639566 0.309166 0.703827 218 225 134
-1.56035 1.32734 -8.68568 -0.327736 0.691487 0.643766 217 226 132
0.0717091 1.07803 -8.37368 0.0510234 0.449182 0.891982 217 226 134
-0.536964 0.452955 -5.35043 0.28846 0.172773 0.941775 216 222 126
-0.505789 0.458791 -5.31334 -0.728381 -0.177131 0.66188 215 222 125
-0.462107 0.457312 -5.3072 -0.809381 -0.469831 0.352365 215 220 121
-0.431736 0.444102 -5.29136 -0.8542 -0.402645 0.328966 201 207 103
-0.132472 0.136858 -4.21951 -0.774018 0.363435 0.51847 91 106 2
-0.0970585 0.106998 -3.92155 -0.366247 0.733221 0.572931 211 219 86
3.46719 0.257678 -6.85264 -0.659273 0.689002 0.301056 212 221 128
6.80594 -0.310641 -6.13048 -0.0755508 0.246378 0.966225 207 212 117
-0.44427 1.05713 -8.43263 0.667105 0.025261 0.744535 217 225 133
-0.501419 0.385086 -5.31948 -0.248484 0.22598 0.941907 218 213 115
-0.478344 0.416068 -5.32936 -0.584805 0.29066 0.757311 217 219 120
-0.184034 0.0391936 -3.89024 -0.833466 0.375204 0.405655 200 213 88
0.297949 -0.0340743 -3.86621 0.461098 -0.438725 0.771304 128 138 9
3.32506 0.303326 -7.07419 -0.990317 -0.116532 0.0754454 212 222 129
-0.63486 0.396832 -5.33672 0.020616 0.145549 0.989136 216 222 125
-0.624799 0.39744 -5.33426 -0.127233 0.10473 0.986328 216 222 124
1.18113 -0.181911 -3.97362 0.0856142 -0.401257 0.911956 206 218 124
-0.653192 0.357061 -5.38179 -0.941363 -0.22073 0.255176 216 221 125
-0.556705 0.296624 -5.31714 -0.355842 0.0682802 0.932048 197 173 77
-0.562037 0.318111 -5.3225 -0.318738 0.270875 0.908313 198 181 85
-0.558233 0.332411 -5.32447 -0.242753 0.338055 0.90928 205 193 96
4.8342 -0.304675 -5.90934 0.0579706 0.0837547 0.994799 209 215 119
5.19745 -0.591756 -4.91911 0.0997885 0.170608 0.980273 210 212 120
-2.56172 1.1788 -8.5701 -0.631025 0.284944 0.721536 221 225 132
1.06287 -0.223817 -4.00401 -0.123779 0.0257936 0.991975 179 167 75
1.10286 -0.224029 -4.00983 -0.111731 0.00784203 0.993708 198 201 106
3.17522 -0.0475051 -6.36528 0.433732 -0.236682 0.869401 209 218 128
3.17522 -0.0475051 -6.36528 0.433732 -0.236682 0.869401 209 218 128
4.70208 -0.356271 -5.83681 0.0877574 0.238358 0.967204 207 214 119
5.08343 -0.607465 -4.90776 0.0486599 0.448535 0.89244 211 214 122
5.73443 -0.655583 -5.22717 -0.00699657 -0.377641 0.925926 211 213 122
5.92127 -0.691575 -5.28521 -0.168313 -0.237755 0.956631 208 213 119
-0.601471 -0.000733293 -4.30311 -0.907385 0.139521 0.396468 139 156 22
0.892326 -0.275812 -3.92161 0.467772 0.19582 0.861884 142 123 28
4.73372 -0.438808 -5.80737 0.0800269 0.209125 0.974609 203 210 114
4.52199 -0.535709 -5.43004 0.0209098 0.581436 0.813324 211 215 121
4.63458 -0.536755 -5.45039 0.0641412 0.620522 0.781562 209 214 120
4.99788 -0.677198 -4.85687 -0.166622 0.278527 0.945865 209 214 120
5.03891 -0.673712 -4.79892 -0.101701 0.312148 0.944574 210 215 123
6.11465 -0.804297 -5.23972 -0.544096 0.80962 0.22017 206 211 117
-1.8143 0.830884 -8.01981 -0.432203 0.458639 0.776435 226 230 139
-1.81411 0.83092 -8.02054 -0.436953 0.457626 0.774371 224 230 137
-0.0102307 -0.214992 -3.64922 -0.484476 -0.406005 0.774883 109 115 2
0.37007 -0.273255 -3.7561 0.507755 -0.402362 0.761768 106 123 7
1.11957 -0.359137 -3.98971 -0.168656 0.503954 0.847104 170 131 51
3.01083 -0.191728 -6.17895 -0.972945 0.192625 0.127567 210 219 127
4.45276 -0.582003 -5.41359 0.0272735 0.578437 0.815271 211 216 121
4.53693 -0.627909 -5.27884 0.0989625 0.578034 0.809989 211 215 122
5.4603 -0.770647 -4.94738 -0.154043 0.391441 0.907218 206 213 119
-1.92687 0.751173 -7.69923 0.747941 0.281373 0.601177 223 231 137
-1.88842 0.830845 -8.04135 -0.455442 0.654302 0.603706 226 230 137
-0.486419 0.485118 -7.48208 -0.619039 -0.644047 0.449438 223 229 139
-0.487074 0.485388 -7.47882 -0.563112 -0.672013 0.48094 223 229 137
-0.45176 0.450076 -7.3737 -0.92762 -0.166503 0.334361 221 227 136
-0.101325 -0.262384 -3.73943 -0.770155 0.284077 0.571105 116 126 8
-0.0918983 -0.252046 -3.70431 -0.950019 -0.268341 0.159551 111 118 2
3.68793 -0.550556 -5.27584 -0.456015 -0.813933 0.359949 209 218 124
4.23664 -0.635803 -5.29021 -0.337233 0.613217 0.71431 206 214 118
4.56632 -0.643605 -5.27133 0.188238 0.417383 0.889021 213 215 124
5.9401 -0.910163 -4.91896 -0.119555 0.694158 0.709825 210 215 122
-0.695293 0.0639239 -5.27682 -0.492712 0.558106 0.667647 218 210 115
-0.658519 0.0514682 -5.30263 -0.910149 -0.0255817 0.413491 217 203 109
-0.0627761 -0.299256 -3.652 -0.919454 -0.307585 0.244941 116 125 5
0.0160396 -0.33111 -3.68969 -0.452031 0.528837 0.718331 121 130 9
2.9452 -0.523366 -5.13267 0.0116802 -0.616339 0.787394 210 218 127
4.21233 -0.68317 -5.23135 -0.502795 0.467347 0.727175 209 216 121
4.1323 -0.711233 -5.15028 -0.477599 0.485139 0.732488 207 216 120
4.53414 -0.744876 -5.17147 0.0923813 0.527184 0.844715 214 218 125
4.47979 -0.781812 -4.98282 0.0813356 0.539953 0.837756 212 216 123
-1.91181 0.542492 -7.35882 0.244178 0.60521 0.757693 223 230 136
0.716172 -0.468338 -3.7756 0.438078 -0.453352 0.776247 168 118 41
3.49221 -0.634214 -5.30711 0.0498084 0.538894 0.8409 204 211 116
3.95126 -0.759654 -5.01746 -0.404047 0.787738 0.464989 211 216 124
4.10933 -0.752677 -5.04598 -0.195653 0.82996 0.522385 212 217 125
4.39006 -0.78391 -5.08427 0.0786473 0.611444 0.78737 215 217 126
-0.681345 0.00339823 -5.38839 -0.474191 -0.35104 0.807412 212 214 120
-0.566273 -0.243632 -4.15638 -0.590025 0.589214 0.551995 214 179 78
-0.566131 -0.244327 -4.15756 -0.592347 0.586958 0.55191 214 179 79
1.10027 -0.517306 -4.01409 -0.370862 -0.68821 0.623561 152 110 27
4.00869 -0.781526 -5.13423 -0.0118872 0.704855 0.709252 208 215 119
4.0521 -0.806992 -5.04389 -0.0527296 0.762924 0.644334 210 216 121
4.58482 -0.918559 -4.9233 0.19077 0.38617 0.902485 211 213 121
-0.638605 -0.0620416 -5.41388 0.232565 -0.303965 0.923861 216 215 119
-0.812331 -0.227908 -4.27355 -0.0368057 0.498354 0.866192 205 167 71
-0.604799 -0.247705 -4.17521 -0.522767 0.645976 0.556264 215 176 77
0.618521 -0.50268 -3.75661 0.393421 -0.470494 0.789845 164 113 36
0.832812 -0.542198 -3.85949 0.293338 -0.500423 0.814573 160 110 33
0.881012 -0.559156 -3.89649 0.299713 -0.580453 0.757131 164 117 39
0.882372 -0.559635 -3.88913 0.273387 -0.602894 0.749519 165 118 40
1.0008 -0.572277 -3.96468 0.352256 -0.56547 0.745761 165 120 39
1.01195 -0.557066 -3.94546 0.177489 -0.570998 0.801535 163 120 41
1.01433 -0.567402 -3.9455 0.333636 -0.534514 0.776519 162 119 40
1.15078 -0.551875 -4.03076 -0.371706 -0.685312 0.626244 151 124 39
1.19487 -0.583715 -4.02415 -0.462452 -0.508324 0.72646 187 178 92
1.22635 -0.564876 -3.99086 -0.558369 -0.297233 0.774517 197 194 106
2.65365 -0.647265 -5.1752 -0.143442 -0.785427 0.602104 209 216 126
2.98432 -0.678466 -5.13807 0.00960237 -0.719178 0.69476 212 219 131
4.48425 -1.01034 -4.71209 -0.789348 0.606192 -0.0972625 207 214 118
4.54982 -1.00892 -4.66468 -0.309923 0.84432 0.437117 205 213 117
-0.619652 -0.12989 -5.43097 0.24299 -0.277187 0.929582 217 214 119
-0.803991 -0.250135 -4.21653 -0.808681 -0.392056 0.43855 201 157 63
0.426962 -0.528844 -3.69546 0.357573 -0.493156 0.793057 168 116 39
0.657822 -0.572563 -3.81657 0.354548 -0.571876 0.739766 157 109 32
0.697587 -0.576105 -3.84542 0.231047 -0.635121 0.737047 161 113 35
0.736157 -0.576248 -3.85484 0.285018 -0.602956 0.745124 164 115 37
0.959699 -0.60557 -3.98065 0.331122 -0.54116 0.772984 162 118 39
0.945146 -0.601536 -3.98182 0.508561 -0.0381269 0.860182 170 122 45
1.17687 -0.613917 -4.02642 -0.785157 0.0887319 0.612906 189 178 94
2.89419 -0.691769 -5.22401 0.196342 0.511318 0.836662 208 215 123
2.92747 -0.74588 -5.18526 0.0626162 -0.670669 0.739109 209 214 125
2.85895 -0.758056 -5.01619 0.0198399 -0.693001 0.720663 209 214 123
2.85895 -0.758056 -5.01619 0.0198399 -0.693001 0.720663 208 214 125
3.31855 -0.820058 -4.98328 -0.110426 0.813811 0.570542 203 212 116
3.23229 -0.837403 -4.93882 -0.0445249 0.783161 0.620224 204 213 117
4.49386 -1.0343 -4.68735 -0.972347 0.171341 -0.158694 207 214 118
4.56371 -1.16702 -4.1558 0.0688882 0.437545 0.896554 214 217 127
4.47166 -1.16941 -4.0545 -0.0143599 0.520733 0.853599 210 215 122
4.66929 -1.17841 -4.23851 0.00378874 0.391295 0.920258 213 216 125
-0.666313 -0.169185 -5.43059 -0.352584 -0.708359 0.611483 216 218 123
0.531789 -0.599743 -3.77575 0.39684 -0.513291 0.760953 160 113 33
0.760098 -0.597756 -3.86232 0.365703 -0.568995 0.73655 164 117 38
0.820019 -0.617455 -3.93801 0.354405 -0.525814 0.773251 159 116 36
1.12664 -0.623147 -4.10522 -0.383235 -0.676364 0.629017 164 137 55
2.47871 -0.73 -5.13717 0.408184 0.192166 0.892445 211 214 123
2.54038 -0.732238 -5.17263 0.128515 0.327393 0.936108 206 214 121
3.17803 -0.863652 -4.92167 0.128059 0.644723 0.753614 206 214 119
3.24952 -0.860662 -4.89732 -0.563916 0.802631 0.194377 202 211 114
4.22917 -1.15813 -4.26675 -0.0408925 0.553753 0.831676 209 214 120
4.565 -1.22352 -4.18691 -0.0576984 0.71223 0.699571 209 213 121
4.5782 -1.19507 -4.16406 -0.0147786 0.546103 0.837588 211 215 122
4.5782 -1.19507 -4.16406 -0.0147786 0.546103 0.837588 211 215 122
4.18997 -1.19302 -3.84717 -0.104268 0.572648 0.813144 206 211 118
4.29385 -1.22858 -3.85607 -0.176791 0.494501 0.851007 204 209 116
4.49257 -1.20135 -4.03415 -0.0355743 0.620983 0.783017 209 214 121
-2.11135 0.252009 -7.05062 -0.523217 0.60561 0.599567 226 228 141
-1.13392 -0.0266668 -6.14541 0.535733 0.12978 0.834354 223 229 136
0.453012 -0.63047 -3.76412 0.309473 -0.597996 0.739343 165 117 37
0.772394 -0.662349 -3.94126 0.30647 -0.640284 0.704353 156 111 34
0.814753 -0.669987 -3.97045 0.299858 -0.643923 0.703881 149 105 29
0.949031 -0.67832 -4.03119 -0.0333234 -0.767711 0.639929 157 114 39
1.19813 -0.67994 -4.08583 -0.693709 -0.58318 0.422694 194 195 113
3.06845 -0.933128 -4.879 0.0570045 -0.258789 0.96425 208 215 120
3.16734 -0.932285 -4.94732 -0.793006 0.405135 0.454981 207 214 119
3.59372 -1.00924 -4.8191 0.0543419 0.705274 0.706849 209 216 120
4.03073 -1.1151 -4.36017 0.163873 0.477847 0.863023 214 215 124
3.99051 -1.14843 -4.36599 -0.0650333 0.783382 0.618129 207 214 118
4.03855 -1.14763 -4.382 -0.0685483 0.784627 0.616167 207 213 118
4.08428 -1.17631 -4.34695 -0.0442409 0.742017 0.66892 207 212 118
4.14926 -1.16408 -4.39255 -0.00151938 0.724744 0.689017 206 213 118
4.1225 -1.14543 -4.37293 0.0441775 0.648075 0.760294 210 214 121
4.14321 -1.16328 -4.31834 0.0337136 0.423267 0.905378 209 213 120
4.1439 -1.15309 -4.33961 -0.040251 -0.139749 0.989369 211 214 122
4.16022 -1.22859 -3.8914 -0.0665513 0.739704 0.669634 206 211 118
4.16022 -1.22859 -3.8914 -0.0665513 0.739704 0.669634 206 211 118
4.30134 -1.24345 -4.05785 -0.789932 0.593639 -0.153624 206 213 120
4.46424 -1.24446 -4.21019 -0.841438 0.515536 -0.161879 206 211 118
4.27914 -1.23033 -3.84825 -0.172739 0.51167 0.841638 207 210 118
4.33116 -1.25829 -3.87076 -0.0724972 0.495143 0.865781 206 210 118
-2.10252 0.224228 -6.96115 -0.486138 0.642049 0.592826 225 229 139
0.322734 -0.635178 -3.70965 0.346226 -0.529661 0.77433 173 121 44
0.35898 -0.637492 -3.72917 0.247462 -0.56521 0.786956 172 121 43
0.474486 -0.65396 -3.80394 0.189837 -0.635043 0.748787 161 116 36
0.847679 -0.71638 -4.03222 0.24785 -0.641385 0.726083 139 98 22
0.880589 -0.696593 -4.01906 0.262749 -0.600873 0.754927 142 101 26
0.893898 -0.705911 -4.04135 0.186148 -0.635885 0.748998 149 108 33
1.01601 -0.696857 -4.12802 0.428636 -0.422378 0.798667 155 111 37
3.12096 -0.96195 -4.84651 0.0854698 0.586673 0.805301 208 215 120
3.15973 -1.01892 -4.73651 -0.00146478 0.755131 0.655572 208 216 121
3.8001 -1.11637 -4.53748 0.0729769 0.412485 0.908037 210 216 120
3.74029 -1.15106 -4.39523 -0.314577 0.611513 0.726012 208 215 121
3.69391 -1.17367 -4.25418 -0.50568 0.54163 0.671509 207 214 120
3.95255 -1.18268 -4.3414 -0.0641653 0.786585 0.614139 207 214 118
3.97663 -1.21381 -4.2938 -0.0605592 0.772984 0.631529 203 209 115
4.13783 -1.20056 -4.33076 -0.0922009 0.336189 0.93727 204 210 116
3.89876 -1.23563 -3.99406 0.110829 0.323411 0.939746 204 208 115
4.02686 -1.24372 -4.02135 -0.0545279 0.349449 0.935367 205 209 115
-2.36272 0.135561 -6.69884 0.178271 0.670421 0.720247 227 231 140
-2.25414 0.162297 -7.07644 -0.605521 0.553012 0.572295 231 232 146
-2.14574 0.132515 -6.8254 -0.2973 0.756013 0.583144 225 231 138
-2.14574 0.132515 -6.8254 -0.2973 0.756013 0.583144 225 231 138
-0.997307 -0.146148 -6.1499 -0.245449 0.0056617 0.969393 227 231 140
-0.983551 -0.175104 -6.13119 0.0796048 0.617627 0.782432 225 231 139
-0.964065 -0.140847 -6.12691 -0.592142 0.148262 0.792077 226 230 138
-0.671719 -0.272545 -5.78637 -0.952542 0.0340502 0.302496 209 213 118
-0.59731 -0.260968 -5.63698 -0.713062 -0.639027 0.288421 215 215 121
-0.600404 -0.274148 -5.59993 -0.562154 -0.714557 0.416402 216 213 119
-0.843669 -0.41978 -4.284 -0.781665 -0.514639 0.352345 191 153 59
-0.768171 -0.430235 -4.32338 -0.742274 -0.565817 0.358999 189 141 51
-0.704752 -0.449315 -4.31474 -0.643926 -0.66091 0.385431 194 142 52
-0.707557 -0.450502 -4.30927 -0.573392 -0.691542 0.439307 194 142 52
-0.73451 -0.4387 -4.30716 -0.649435 -0.59922 0.468156 188 138 48
-0.427325 -0.505661 -4.02716 -0.685915 -0.55687 0.468419 208 152 62
0.180384 -0.659276 -3.62393 0.299252 -0.606726 0.736432 177 126 46
0.214627 -0.663389 -3.68027 0.294214 -0.263557 0.918682 174 125 44
0.365952 -0.682366 -3.77989 -0.407129 -0.739499 0.536085 172 122 45
0.352762 -0.698158 -3.7899 -0.158737 -0.772968 0.614266 166 117 40
0.352702 -0.698126 -3.78972 -0.159484 -0.772986 0.61405 166 117 40
0.406546 -0.676229 -3.80241 -0.0129077 -0.683487 0.729848 163 117 38
0.406124 -0.685357 -3.80159 0.116409 -0.647721 0.752932 160 115 36
0.481041 -0.699149 -3.85769 0.177846 -0.528365 0.830182 153 114 35
0.583241 -0.72369 -3.89117 0.337845 -0.477 0.811376 138 100 22
0.631591 -0.723565 -3.91057 0.399196 -0.489723 0.775122 138 99 23
0.64609 -0.696764 -3.94609 0.363768 0.113353 0.924567 154 111 35
0.800315 -0.742941 -4.04777 0.187752 -0.623947 0.758578 131 90 14
0.884426 -0.741878 -4.06329 0.126849 -0.684887 0.717523 154 115 39
0.879747 -0.746122 -4.07403 -0.00309587 -0.755441 0.655209 154 115 39
0.885658 -0.747216 -4.08276 0.057332 -0.66869 0.741328 153 114 39
0.958049 -0.7285 -4.10742 0.0497845 -0.623326 0.780375 153 112 37
1.04971 -0.750149 -4.21834 0.317622 -0.402161 0.85871 153 112 38
3.34894 -1.12789 -4.38734 0.08796 0.365071 0.926815 211 216 121
3.43662 -1.15627 -4.42385 -0.214814 0.364627 0.906036 206 214 119
3.6008 -1.19621 -4.23394 -0.0623183 0.391414 0.918102 206 212 118
3.66595 -1.20824 -4.20494 -0.0835274 0.668509 0.738998 205 212 118
-2.41748 0.132176 -6.78241 -0.661378 0.162715 0.73219 230 232 146
-2.37292 0.0926376 -6.76139 -0.278709 0.27054 0.921482 228 233 143
-1.95031 -0.0244775 -6.35993 0.584963 0.50147 0.637453 232 235 148
-1.46343 -0.125713 -6.24687 0.58205 0.0946752 0.807622 230 232 143
-1.46104 -0.0969139 -6.22541 0.568397 -0.100063 0.816647 229 232 142
-1.46104 -0.0969139 -6.22541 0.568397 -0.100063 0.816647 229 232 143
-0.875258 -0.370714 -5.08721 0.365465 0.616653 0.697262 193 181 94
-0.644143 -0.313532 -5.78952 -0.153812 0.132219 0.979214 208 211 115
-0.787434 -0.449501 -4.32567 -0.869907 -0.286535 0.401447 188 140 52
-0.728406 -0.482125 -4.33111 -0.771767 -0.421458 0.476181 182 132 45
-0.530743 -0.540274 -4.11608 -0.214291 -0.766389 0.605579 192 140 53
-0.42956 -0.573235 -4.04078 -0.788121 -0.428345 0.442024 185 135 51
0.263244 -0.735939 -3.75499 -0.146767 -0.747002 0.648419 166 117 39
0.359834 -0.739152 -3.85747 -0.223317 -0.760877 0.609259 162 115 39
0.409559 -0.727823 -3.87231 0.0116137 -0.65542 0.755176 156 114 37
0.586582 -0.767853 -3.9307 0.245468 -0.623836 0.742007 153 121 46
0.798261 -0.788339 -4.06622 0.140265 -0.511777 0.847591 138 101 26
0.942517 -0.772214 -4.13978 0.108805 -0.606575 0.787546 155 116 40
1.00324 -0.782089 -4.18417 0.401909 -0.42495 0.811102 140 101 26
1.1576 -0.818827 -4.16581 -0.487417 -0.577326 0.655072 182 179 96
2.34703 -0.974582 -4.63019 0.189016 0.592378 0.783174 215 218 131
3.01571 -1.09594 -4.44658 0.076005 0.25391 0.964237 207 216 121
3.28325 -1.19011 -4.34911 0.0502525 0.262683 0.963573 206 212 118
3.3442 -1.18197 -4.3899 0.015254 0.522044 0.852782 206 213 118
3.43184 -1.19398 -4.38224 -0.238032 0.365742 0.899763 204 212 117
3.43184 -1.19398 -4.38224 -0.238032 0.365742 0.899763 204 212 117
3.43184 -1.19398 -4.38224 -0.238032 0.365742 0.899763 204 212 117
3.49587 -1.27892 -3.9841 -0.139782 0.821426 0.55292 201 208 115
3.54304 -1.29133 -3.94165 -0.0780776 0.787445 0.61142 202 209 115
3.61599 -1.28856 -3.93967 -0.0551187 0.711864 0.700151 202 208 115
3.69447 -1.31808 -3.91469 -0.110263 0.627933 0.770417 202 208 115
3.74112 -1.33235 -3.62847 -0.165901 0.558892 0.812476 207 212 119
4.13247 -1.40212 -3.72072 -0.151248 0.591045 0.792332 204 210 116
-1.25177 -0.219651 -6.04109 0.420393 0.604212 0.676903 222 229 136
-0.642087 -0.338741 -5.75803 -0.332371 0.342025 0.878947 204 206 112
-0.648248 -0.359554 -5.71362 -0.215028 0.349972 0.911747 202 201 109
-0.613569 -0.375895 -5.63524 -0.0533437 0.131722 0.98985 200 194 101
-0.60966 -0.360204 -5.67972 -0.78637 0.246599 0.566402 201 198 105
-0.614155 -0.376514 -5.63351 -0.101124 0.194299 0.975716 199 194 101
-0.56419 -0.411717 -5.61331 -0.211626 0.155422 0.964914 188 166 73
-0.572333 -0.370429 -5.62678 -0.574369 -0.000128902 0.818596 195 180 88
-0.543195 -0.552227 -4.15304 -0.191214 -0.786283 0.587534 190 137 50
-0.555289 -0.549289 -4.11154 -0.402903 -0.730638 0.551215 189 136 49
-0.416708 -0.599686 -4.12212 -0.824088 -0.40494 0.396109 186 133 49
-0.417359 -0.599408 -4.12145 -0.822148 -0.40607 0.398974 186 133 49
-0.417359 -0.599408 -4.12145 -0.822148 -0.40607 0.398974 186 133 49
-0.349669 -0.637845 -3.99559 -0.558825 -0.679116 0.475938 181 128 46
-0.0936401 -0.694018 -3.74134 -0.800215 -0.441292 0.4061 180 134 50
-0.0971693 -0.715548 -3.72065 -0.554194 -0.669836 0.494155 184 135 52
0.516133 -0.786893 -3.92614 0.133312 -0.688845 0.712545 167 137 59
0.584442 -0.801224 -3.95819 0.224754 -0.634396 0.739613 173 148 71
0.981052 -0.822213 -4.20736 0.152763 -0.338738 0.928397 149 111 37
0.992545 -0.816854 -4.2042 0.227501 -0.424631 0.876317 143 104 31
3.22519 -1.23005 -4.29848 0.123507 0.601044 0.789615 203 210 116
3.51646 -1.32736 -3.85498 -0.230334 0.849721 0.474258 207 213 120
3.30501 -1.31198 -3.64264 -0.244823 -0.499666 0.8309 211 214 123
3.56348 -1.32624 -3.80797 -0.269159 0.859957 0.433622 205 211 118
3.43476 -1.33132 -3.65318 -0.836968 0.442151 0.322471 205 212 118
-1.51956 -0.248021 -5.95237 -0.596125 -0.0034191 0.802885 218 225 131
-1.43039 -0.261939 -6.01613 -0.287567 0.701836 0.651714 224 229 136
-1.39149 -0.259693 -6.04299 -0.38834 0.564344 0.728497 224 230 138
-1.36221 -0.267975 -5.95514 -0.424761 0.61793 0.66162 222 228 134
-1.36038 -0.24607 -6.04618 -0.21102 0.810365 0.546606 223 229 136
-1.36093 -0.2843 -5.88387 -0.699381 0.38395 0.602867 221 226 133
-1.00017 -0.357455 -5.70471 0.607239 0.178854 0.774126 224 226 136
-0.715073 -0.402055 -5.63861 0.0898874 0.73709 0.66979 206 204 114
-0.729568 -0.4228 -5.57991 -0.143114 0.636763 0.757661 203 201 110
-0.687196 -0.411108 -5.60397 0.11819 0.640498 0.758811 199 197 105
-0.599362 -0.412147 -5.62681 -0.307708 0.390769 0.867534 199 187 94
-0.651649 -0.427814 -5.58501 0.352567 0.657697 0.665681 196 189 98
-0.589904 -0.438381 -5.6007 -0.0194281 0.436684 0.899405 190 172 79
-0.559675 -0.433566 -5.58155 -0.299462 0.48739 0.820228 180 152 61
-0.700286 -0.558105 -4.37564 -0.732446 -0.49151 0.471106 181 127 45
-0.551975 -0.590286 -4.30588 0.176093 -0.63398 0.753034 189 137 53
-0.344797 -0.668185 -4.05857 -0.718729 -0.51587 0.466161 178 127 47
-0.258755 -0.663241 -3.95177 -0.518148 -0.678116 0.521231 181 136 51
-0.199212 -0.688133 -3.88952 -0.527187 -0.675056 0.516114 180 138 52
0.141011 -0.774451 -3.75887 0.155728 -0.525249 0.836578 173 120 45
0.141011 -0.774451 -3.75887 0.155728 -0.525249 0.836578 173 120 45
0.12963 -0.794214 -3.71495 -0.582633 -0.626026 0.518296 168 118 40
0.34822 -0.777797 -3.90093 0.0719477 -0.6053 0.792739 157 112 35
0.469366 -0.810448 -3.92621 0.276192 -0.605762 0.746171 161 133 54
0.51474 -0.827882 -3.96475 0.189243 -0.669201 0.71858 153 129 49
0.766759 -0.851708 -4.08476 0.338341 -0.530288 0.777381 155 129 52
1.64039 -0.93448 -4.60313 -0.774427 0.530825 0.34422 190 196 109
1.74337 -1.00165 -4.3845 -0.0961075 -0.0642679 0.993294 209 215 122
2.31531 -1.09356 -4.6166 0.230249 0.488657 0.841546 215 218 130
2.60218 -1.16409 -4.3279 0.157145 0.653436 0.740491 207 215 124
2.75225 -1.28192 -3.57505 -0.0606077 0.814094 0.577562 203 211 118
3.30924 -1.34307 -3.82895 -0.020221 0.466856 0.884102 209 214 121
3.33058 -1.33173 -3.75817 -0.916381 0.39481 -0.0661077 212 215 123
3.39544 -1.39474 -3.3433 -0.199299 0.379147 0.903619 209 213 121
3.45181 -1.43633 -3.30054 -0.142587 0.414648 0.898741 210 215 123
-1.96272 -0.184063 -6.16686 -0.858126 -0.237842 0.455029 226 228 141
-1.28716 -0.336463 -5.8508 -0.0290425 0.823956 0.56591 227 227 139
-1.21317 -0.351365 -5.91996 0.263851 0.312886 0.912406 227 227 138
-1.00367 -0.412167 -5.67737 -0.115298 0.830391 0.545121 224 229 136
-0.762143 -0.441192 -5.5722 -0.0881797 0.821371 0.563537 209 210 117
-0.520245 -0.646554 -4.34751 -0.629298 0.420261 0.653732 191 138 55
-0.324425 -0.69117 -4.04575 -0.717233 -0.517376 0.466797 170 120 41
-0.284379 -0.701199 -4.00994 -0.703279 -0.534666 0.468542 141 95 15
-0.200023 -0.72164 -3.92991 -0.577745 -0.614509 0.537206 190 152 67
0.0119216 -0.808829 -3.78754 -0.187538 -0.758425 0.624196 185 131 55
0.114363 -0.81412 -3.77111 -0.451937 -0.666227 0.593206 169 118 40
0.515973 -0.873923 -3.99889 0.244802 -0.523594 0.81604 119 100 19
0.518756 -0.874254 -3.99682 0.0968113 -0.631741 0.76911 121 101 20
0.567668 -0.8758 -4.01653 0.295384 -0.592143 0.749743 152 134 54
0.634448 -0.899714 -4.02923 0.324117 -0.549564 0.770018 163 147 68
0.797836 -0.903518 -4.13479 0.383234 -0.519101 0.763981 145 124 45
1.08974 -0.936973 -4.22103 -0.565152 -0.688954 0.453812 187 176 94
1.23842 -0.929899 -4.41299 -0.336293 -0.635331 0.69517 180 179 99
1.81003 -1.02663 -4.4562 -0.0233449 0.0414775 0.998867 212 217 125
1.82856 -1.05812 -4.4455 -0.307435 0.130399 0.942592 213 218 127
2.77053 -1.29053 -4.05588 -0.807959 0.381951 0.448683 199 208 114
3.3632 -1.45311 -3.35799 -0.488495 0.626428 0.607421 207 213 119
3.39018 -1.47958 -3.2921 -0.0884898 0.770911 0.630766 212 216 125
3.475 -1.46922 -3.341 -0.252357 0.160322 0.95426 211 216 124
-1.90837 -0.272812 -5.95765 0.544732 0.483244 0.685378 221 226 135
-1.8597 -0.272746 -6.00499 0.558587 0.473996 0.680667 224 226 138
-1.30145 -0.40212 -5.74159 0.318804 0.687659 0.652295 223 225 136
-0.80986 -0.518865 -5.47341 -0.24136 0.813746 0.528737 221 220 131
-0.698814 -0.555044 -5.41925 -0.301551 0.803119 0.513875 195 185 94
-0.673654 -0.534454 -5.42015 -0.139221 0.779955 0.610153 192 177 88
-0.642598 -0.539788 -5.39741 -0.102156 0.800405 0.590691 190 169 80
-0.286825 -0.738561 -4.05729 -0.738988 -0.492835 0.459359 164 118 39
-0.250156 -0.776093 -4.04047 -0.761787 -0.466377 0.449636 185 148 67
0.422551 -0.890135 -3.97114 0.429954 -0.348169 0.833017 169 140 65
0.468534 -0.890392 -3.98722 0.409444 -0.472735 0.780306 148 129 49
0.900853 -0.94666 -4.19884 0.409484 -0.322957 0.853242 131 102 26
0.947307 -0.947379 -4.22077 0.380643 -0.347171 0.857078 113 80 5
1.96295 -1.16671 -4.28712 0.181809 0.645905 0.741453 205 215 123
2.49946 -1.26834 -4.17011 -0.0487278 0.816622 0.575112 202 211 120
2.66649 -1.32551 -3.5776 -0.0235733 0.788714 0.614308 206 212 118
2.67925 -1.36877 -3.48906 -0.0274444 0.735588 0.676873 208 212 119
2.75233 -1.34462 -3.51814 0.0199243 0.672435 0.739888 209 213 120
2.88179 -1.40014 -3.40924 -0.13636 0.562083 0.815763 209 214 121
2.93894 -1.43748 -3.33393 -0.810826 0.575076 0.108855 210 215 122
2.98335 -1.40006 -3.41769 -0.574039 0.811527 0.109106 208 213 120
3.00173 -1.43827 -3.38733 -0.101477 0.807973 0.580416 209 214 121
2.99417 -1.43669 -3.29718 -0.858537 0.473209 -0.197452 210 214 121
-1.9569 -0.314776 -5.85921 0.22553 0.778316 0.58597 224 229 136
-1.88614 -0.31116 -5.91165 0.450036 0.404053 0.796372 224 228 137
-1.91268 -0.317894 -5.92746 0.382695 0.414089 0.825878 225 228 139
-1.17996 -0.485656 -5.508 0.188474 0.650425 0.735816 222 228 136
-0.69793 -0.617124 -5.29072 -0.202751 -0.0835302 0.975661 189 173 85
-0.745409 -0.636981 -4.65075 -0.931528 0.0715694 0.356558 220 197 109
-0.699256 -0.659339 -4.4505 -0.731637 -0.317274 0.603361 163 119 38
-0.718716 -0.66094 -4.50479 -0.911782 -0.187484 0.365381 152 108 24
0.171561 -0.891066 -3.91425 -0.409203 -0.314046 0.856696 157 112 34
0.260756 -0.886576 -3.96763 0.200388 -0.24029 0.949792 154 111 35
1.18496 -1.04371 -4.4081 -0.235605 0.360614 0.902468 162 145 68
2.64327 -1.37009 -3.57427 0.115711 0.6135 0.781172 210 215 122
2.56358 -1.39021 -3.5445 0.0169224 0.567219 0.823393 211 215 123
2.80101 -1.43937 -3.32708 -0.182845 0.700556 0.689774 213 217 124
2.87425 -1.44372 -3.3356 -0.684859 0.533751 0.496063 211 216 123
2.90618 -1.44853 -3.37451 -0.162956 0.494774 0.853607 212 215 123
2.85381 -1.46397 -3.28551 -0.69197 0.719678 0.0569233 211 216 123
2.95 -1.46537 -3.17833 -0.027119 0.744027 0.667599 212 214 124
3.01661 -1.48742 -3.1353 0.0841343 0.547088 0.832836 214 217 126
3.06349 -1.48794 -3.17388 -0.033807 0.749806 0.660793 212 215 123
-0.719603 -0.680671 -4.5718 -0.950612 -0.110097 0.290198 143 105 27
-0.0439757 -0.902848 -3.90749 -0.465119 -0.309494 0.829384 137 94 16
0.155227 -0.923945 -3.92647 -0.305086 -0.250611 0.918758 157 112 35
0.192113 -0.924223 -3.91558 0.240075 -0.540442 0.806404 153 109 32
0.572502 -0.993275 -4.064 0.324066 -0.52174 0.789157 132 112 36
0.580953 -0.991543 -4.07106 0.355436 -0.540795 0.762369 137 118 42
0.857068 -1.03342 -4.20437 0.462621 -0.344954 0.816694 151 121 44
0.947615 -1.03299 -4.24881 0.37992 -0.454201 0.80583 156 119 43
0.95936 -1.05857 -4.25792 0.347199 -0.427873 0.834493 162 126 51
1.05463 -1.07759 -4.31424 0.435595 -0.371819 0.819761 157 123 48
1.25999 -1.09743 -4.35577 -0.437218 0.781133 0.445726 188 191 107
2.21326 -1.35022 -3.81142 0.0195422 0.585756 0.810252 204 210 117
2.88481 -1.49713 -3.15705 -0.160192 0.667255 0.727399 209 212 121
2.95388 -1.51945 -3.1152 -0.0441441 0.789984 0.611536 211 214 123
-1.65197 -0.500202 -5.43774 -0.3643 0.779894 0.508971 225 227 138
-1.38314 -0.588408 -5.02814 0.63948 0.172624 0.749177 225 229 138
-0.445135 -0.82037 -4.25894 -0.858083 -0.333564 0.390422 155 127 46
-0.141871 -0.909637 -4.02589 -0.763276 -0.464361 0.449198 185 150 67
-0.0262333 -0.929991 -3.95218 -0.228544 -0.523888 0.820554 151 104 25
0.314986 -0.98914 -3.99457 0.378824 -0.44997 0.808715 128 87 13
0.741777 -1.07401 -4.17706 0.217183 -0.57793 0.786656 155 126 50
0.874064 -1.08161 -4.23326 0.296933 -0.548139 0.781904 158 127 51
0.979315 -1.10623 -4.29002 0.400863 -0.383906 0.831821 144 112 37
1.78117 -1.30695 -3.84783 -0.270031 0.81647 0.510352 201 208 115
2.1959 -1.41524 -3.37593 0.139342 0.609459 0.780477 216 220 127
-1.32711 -0.61681 -5.16723 -0.534223 0.699877 0.474107 223 229 136
-0.108684 -0.934407 -4.026 -0.480509 -0.674252 0.560799 183 142 60
0.277524 -1.0416 -3.99738 0.424325 -0.473744 0.771696 155 109 33
0.759972 -1.102 -4.19584 0.254187 -0.574973 0.777686 160 130 54
0.719926 -1.1062 -4.17558 0.318487 -0.52594 0.78864 158 129 52
0.827161 -1.13448 -4.24601 0.465084 -0.299907 0.832918 144 117 41
0.835348 -1.11198 -4.22848 0.330839 -0.502231 0.798943 152 124 48
0.874803 -1.11674 -4.25018 0.364773 -0.439893 0.820631 147 120 44
1.72611 -1.33419 -3.52406 0.107714 0.747718 0.655222 210 214 120
2.96116 -1.62653 -3.02484 -0.000707716 0.645912 0.763411 214 217 124
2.91185 -1.62604 -3.01174 0.0110454 0.559625 0.828672 215 218 126
-1.36314 -0.662606 -5.11206 0.361868 0.672809 0.645275 225 230 138
-0.793662 -0.790262 -4.63998 -0.925341 0.233341 0.298825 192 165 78
-0.806622 -0.82852 -4.62285 -0.892506 0.339639 0.296782 207 181 90
-0.110647 -0.981035 -4.04947 -0.767154 -0.456349 0.450799 185 140 59
0.407493 -1.06834 -4.06424 -0.0597476 -0.704722 0.706963 158 113 39
1.1368 -1.29898 -3.13351 0.197581 0.587533 0.784708 210 217 122
1.10143 -1.301 -3.07989 0.325115 0.502924 0.800854 215 219 127
2.86681 -1.64474 -3.03549 -0.00729427 0.716076 0.697984 212 214 122
2.91506 -1.68157 -2.9432 0.0101566 0.505442 0.862801 212 215 123
-1.40602 -0.720201 -5.06672 -0.634976 -0.179866 0.751301 225 231 138
-1.21895 -0.751202 -5.05351 -0.630958 0.568318 0.528116 225 232 140
-1.21895 -0.751202 -5.05351 -0.630958 0.568318 0.528116 225 232 139
-0.086243 -1.02636 -4.04898 -0.682503 -0.541313 0.49109 195 145 64
0.287168 -1.11445 -4.02037 0.311572 -0.561173 0.766816 164 113 38
0.397289 -1.10846 -4.07986 0.0893214 -0.678185 0.729443 163 115 40
2.81119 -1.68816 -3.00897 -0.0938536 0.545971 0.83253 212 213 121
2.84727 -1.69698 -2.97462 -0.198125 0.331871 0.922284 210 213 121
1.32402 -1.39674 -3.20235 0.0527612 0.807781 0.587116 215 219 127
1.34117 -1.41463 -3.26044 0.0756304 0.758517 0.64725 213 218 130
1.45224 -1.4476 -3.32284 0.278331 -0.340782 0.897997 217 220 130
1.50052 -1.44605 -3.32723 0.3027 -0.301749 0.904058 217 220 129
2.4805 -1.66759 -2.77419 -0.453872 0.0343309 0.890405 209 214 123
-1.92324 -0.67904 -5.16359 -0.134936 0.821497 0.554017 226 229 135
-1.15873 -0.845194 -4.69538 0.476483 0.306138 0.824162 224 227 135
-0.827143 -0.929316 -4.75222 -0.814712 0.106544 0.569994 214 205 111
-0.550017 -0.980347 -4.41203 -0.392246 -0.682077 0.617183 194 156 69
-0.396597 -1.05097 -4.31065 -0.685512 -0.510628 0.518972 201 161 79
0.236907 -1.1669 -4.02336 0.370475 -0.110037 0.922301 173 123 47
2.45396 -1.71749 -2.78099 -0.417285 0.227122 0.879937 214 216 124
-1.97152 -0.710353 -5.1046 -0.370116 0.753376 0.543543 224 227 134
-1.93591 -0.715168 -5.11294 -0.526014 0.587822 0.614634 224 227 133
-1.43793 -0.81351 -5.04575 0.633342 0.477428 0.609049 222 227 132
-0.404592 -1.08882 -4.35211 -0.707791 -0.416157 0.570829 181 152 67
-0.320779 -1.09299 -4.27964 -0.149192 -0.53037 0.834536 196 162 75
-0.325058 -1.07751 -4.26351 -0.668714 -0.529764 0.521701 203 163 77
2.25635 -1.71548 -2.79968 0.0325543 0.653026 0.756636 211 214 122
2.4206 -1.73792 -2.73618 -0.236108 0.223384 0.945702 212 216 123
2.40127 -1.74765 -2.76857 0.029394 0.579062 0.814754 214 216 125
2.40127 -1.74765 -2.76857 0.029394 0.579062 0.814754 214 216 125
2.40127 -1.74765 -2.76857 0.029394 0.579062 0.814754 214 216 125
-2.42879 -0.641491 -5.19456 -0.188562 0.638902 0.74582 231 234 142
-2.41545 -0.676138 -5.10583 0.459695 0.701748 0.54427 231 234 142
-1.45234 -0.8498 -5.0204 0.739917 -0.117331 0.662387 223 228 137
-0.663955 -1.0529 -4.54367 -0.482557 0.126857 0.866629 209 193 105
0.316991 -1.28698 -4.02086 -0.0423376 0.867407 0.495795 184 162 81
0.392048 -1.31235 -3.82572 0.275133 0.48263 0.831486 199 194 107
0.426446 -1.30635 -3.81619 0.147131 0.376451 0.914679 199 195 107
1.43657 -1.57591 -3.03155 -0.333933 -0.155355 0.929706 215 219 126
2.12012 -1.71027 -2.65501 0.0762983 0.734497 0.67431 216 218 129
2.20173 -1.74752 -2.6381 0.0876435 0.694066 0.714556 219 221 132
2.20173 -1.74752 -2.6381 0.0876435 0.694066 0.714556 219 221 132
2.20173 -1.74752 -2.6381 0.0876435 0.694066 0.714556 219 221 132
2.35614 -1.74837 -2.74127 0.0939086 0.65916 0.746116 215 218 127
