ply
format ascii 1.0
element face 0
property list uchar int vertex_indices
element vertex 231
property float x
property float y
property float z
property uchar diffuse_red
property uchar diffuse_green
property uchar diffuse_blue
end_header
-3.275209e-01 1.864622e+00 -5.982679e+00 191 128 0
-5.421204e-01 1.784265e+00 -5.995190e+00 168 104 10
-5.476028e-01 1.647731e+00 -5.985122e+00 134 88 0
-5.774552e-01 1.619244e+00 -6.046948e+00 123 77 0
-7.576698e-01 8.974191e-01 -6.310621e+00 82 52 0
-5.595827e+00 2.102620e+00 -1.929696e+01 193 171 30
7.966084e+00 3.656626e-01 -1.859413e+01 206 181 60
-4.935120e+00 -5.079706e-01 -1.207406e+01 207 187 57
-4.935120e+00 -5.079706e-01 -1.207406e+01 207 187 57
4.774127e+00 -8.011482e-01 -1.449571e+01 226 213 110
5.277184e+00 -8.823633e-01 -1.447040e+01 201 189 70
-4.418553e+00 -7.698738e-01 -1.168042e+01 233 214 83
-4.076361e+00 -9.377047e-01 -1.142497e+01 218 210 83
-4.595985e+00 -1.040780e+00 -1.087581e+01 238 210 84
4.078208e+00 -1.247438e+00 -1.294351e+01 219 225 139
2.046730e+00 -1.230421e+00 -9.203822e+00 28 36 20
2.046730e+00 -1.230421e+00 -9.203822e+00 28 36 20
2.040377e+01 -2.318306e+01 5.988568e+01 153 162 94
8.749006e+00 -1.407506e+01 3.763938e+01 6 11 0
8.749006e+00 -1.407506e+01 3.763938e+01 6 11 0
8.330906e+00 -1.354748e+01 3.667286e+01 107 113 80
1.762860e-01 1.721541e+00 -5.973438e+00 64 73 17
1.550696e+01 -1.373127e+01 5.765511e+01 56 67 2
-9.867575e-01 1.479460e+00 -6.383023e+00 166 101 0
-7.094185e-01 1.399673e+00 -6.177204e+00 72 44 0
-8.239287e-01 1.076063e+00 -6.207895e+00 110 66 0
-6.053534e+00 2.273393e+00 -1.980161e+01 209 199 79
-5.576104e+00 2.175460e+00 -1.908608e+01 238 219 87
-7.467800e-01 7.929538e-01 -6.384134e+00 56 37 0
-5.457954e+00 1.729793e+00 -1.833571e+01 233 216 66
-7.556221e-01 4.132064e-01 -6.450059e+00 38 43 9
8.641683e+00 6.805844e-01 -2.003956e+01 194 175 54
-4.361923e+00 5.303613e-01 -1.561101e+01 205 186 47
4.770483e+00 -7.227057e-01 -1.452306e+01 80 61 0
5.335618e+00 -8.383618e-01 -1.436700e+01 229 210 89
3.958538e+00 -1.339901e+00 -1.272032e+01 208 214 133
2.297981e+00 -1.061752e+00 -9.254526e+00 7 25 1
2.603730e+00 -2.068200e+00 -1.063321e+01 141 152 76
2.332390e+00 -2.553470e+00 -9.511636e+00 181 191 94
-1.835932e+00 -2.192682e+00 -6.885805e+00 214 221 141
7.101452e+00 5.561667e+00 -1.936105e+01 118 129 71
-2.493712e-01 1.709102e+00 -5.941223e+00 80 51 0
2.613679e-01 1.651373e+00 -5.946549e+00 27 43 0
-5.087719e-01 1.590872e+00 -5.995748e+00 80 52 0
-6.278432e-01 1.518086e+00 -6.062360e+00 73 46 0
-7.878991e-01 1.157059e+00 -6.192505e+00 92 47 0
-7.681582e-01 1.004512e+00 -6.260613e+00 90 50 0
-7.439643e-01 9.959816e-01 -6.371666e+00 112 80 23
-7.173362e-01 9.467181e-01 -6.382148e+00 58 30 0
-8.435849e-01 7.240912e-01 -6.287500e+00 88 63 12
-1.197200e+00 7.189442e-01 -6.395525e+00 36 40 4
8.356311e+00 6.097885e-01 -1.904847e+01 120 102 3
8.481227e+00 2.839374e-01 -1.880472e+01 192 169 50
-3.919866e+00 -1.778385e-01 -1.348839e+01 226 211 69
-4.468484e+00 -7.051364e-01 -1.180118e+01 160 141 10
-4.468484e+00 -7.051364e-01 -1.180118e+01 160 141 10
4.002927e+00 -1.194403e+00 -1.288942e+01 89 95 19
2.080447e+00 -9.889692e-01 -9.558042e+00 225 237 173
3.783268e+00 -1.407970e+00 -1.241683e+01 225 231 152
2.680814e+00 -2.034268e+00 -1.054567e+01 173 183 99
-1.887163e+00 -2.126796e+00 -7.073659e+00 63 72 6
-3.366538e-01 1.719639e+00 -5.867730e+00 136 89 0
-1.978734e-01 1.664769e+00 -5.934846e+00 67 60 13
-6.238396e-01 1.416165e+00 -6.080468e+00 59 50 3
-7.943801e-01 1.290085e+00 -6.104052e+00 117 73 9
-5.508511e+00 1.869274e+00 -1.839403e+01 206 185 42
-1.045840e+00 7.013946e-01 -6.307970e+00 31 20 0
-6.069817e+00 6.947156e-01 -1.517215e+01 228 206 69
-5.774780e+00 6.169958e-01 -1.514388e+01 222 196 57
-4.359250e-02 2.004473e-01 -5.998270e+00 29 40 1
2.213915e+00 -2.385052e+00 -9.460944e+00 162 173 81
-1.702557e+00 -1.855093e+00 -6.917890e+00 40 58 10
2.545364e+00 -2.553477e+00 -9.389913e+00 201 208 105
2.054603e+01 -1.538035e+01 5.540828e+01 89 95 20
-4.737150e-01 1.757172e+00 -5.979473e+00 218 164 26
1.628587e+01 -1.340523e+01 5.829297e+01 106 125 59
2.693541e-01 1.541069e+00 -5.980905e+00 23 40 4
-8.641479e-01 1.305404e+00 -6.071640e+00 119 66 0
-9.036496e-01 1.175294e+00 -6.140398e+00 124 71 1
-6.883741e-01 1.055485e+00 -6.317097e+00 52 26 0
-8.394136e-01 1.026429e+00 -6.218219e+00 132 88 9
-6.188809e-01 9.797285e-01 -6.261834e+00 73 65 3
-9.053857e-01 6.682214e-01 -6.280295e+00 14 13 0
1.126490e+01 1.831521e+00 -2.401613e+01 121 110 23
-9.021361e-01 5.786393e-01 -6.348937e+00 10 24 2
-6.641709e-01 -2.057992e-01 -5.944914e+00 15 28 0
5.770232e+00 -1.027008e+00 -1.414744e+01 215 202 76
1.884747e+00 -6.980974e-01 -1.002023e+01 63 68 1
-1.092294e+00 -9.683446e-01 -6.262235e+00 16 36 2
-1.399779e+00 -1.405200e+00 -6.438627e+00 25 48 6
2.066846e+00 -2.417321e+00 -9.081282e+00 166 175 82
2.327743e+00 -2.502843e+00 -9.031401e+00 202 208 110
1.540592e+00 -2.589648e+00 -8.526939e+00 162 172 83
1.887134e+00 -2.803124e+00 -8.307304e+00 181 189 93
1.598651e+01 -1.697060e+01 5.773452e+01 75 71 1
2.841559e-01 1.789659e+00 -6.003294e+00 35 12 10
-5.882398e+00 -2.726191e-01 -1.256155e+01 247 223 91
5.808515e+00 -6.331109e-01 -1.527938e+01 226 206 78
-4.665742e-01 -3.354163e-01 -6.083086e+00 20 37 1
-4.765785e+00 -1.366378e+00 -1.024189e+01 237 217 86
-1.057033e+00 -7.236747e-01 -6.134900e+00 15 32 0
-9.629747e-01 -7.618056e-01 -6.277228e+00 15 31 2
1.882718e+00 -1.275049e+00 -9.055388e+00 3 4 7
1.764620e+01 -1.473788e+01 4.156651e+01 93 113 60
5.001625e-01 1.572992e+00 -6.391632e+00 67 67 4
-5.785021e-01 1.226880e+00 -6.207329e+00 64 60 5
-6.156160e-01 8.077264e-01 -6.264080e+00 71 68 7
-6.156160e-01 8.077264e-01 -6.264080e+00 71 68 7
-6.163927e-01 8.091351e-01 -6.265575e+00 71 68 7
-9.242726e-01 7.651293e-01 -6.271871e+00 143 100 7
1.006327e+00 7.435100e-01 -7.109887e+00 63 64 0
-4.133218e+00 -8.484072e-01 -1.164985e+01 230 213 83
-4.604823e+00 -8.503343e-01 -1.133464e+01 188 163 34
-4.604823e+00 -8.503343e-01 -1.133464e+01 188 163 34
6.332884e+00 -1.136155e+00 -1.410227e+01 184 153 30
1.005664e+00 -1.890300e+00 -8.407535e+00 76 82 12
-3.546098e+00 -2.113421e+00 -8.054988e+00 235 236 142
1.753422e+00 -2.451041e+00 -9.127387e+00 127 135 60
1.918721e+01 -1.279866e+01 4.613626e+01 82 97 42
-7.185943e-01 1.214728e+00 -6.231148e+00 57 25 0
8.437683e+00 -1.280101e-01 -1.774398e+01 210 186 59
-3.459518e+00 -1.280248e+00 -1.019280e+01 239 243 146
-1.193948e+00 -1.466331e+00 -6.342050e+00 29 51 13
-8.844971e-02 -3.060190e+00 -7.419934e+00 165 171 98
2.189025e+01 -1.347850e+01 5.560265e+01 45 60 5
-5.225818e-01 1.081719e+00 -6.245313e+00 58 57 0
-8.189889e-01 6.280366e-01 -6.297138e+00 6 12 0
-6.663113e-01 -9.090830e-01 -6.243805e+00 16 33 0
3.203564e+00 -2.378123e+00 -9.638958e+00 226 229 126
1.511900e+00 -2.761036e+00 -8.303951e+00 166 176 87
-5.934512e-01 -2.045003e+00 -7.091458e+00 84 86 21
-2.265133e-01 -2.818784e+00 -7.424937e+00 34 49 8
1.137957e+00 9.731706e-01 -7.317439e+00 56 54 2
-1.492990e+00 -2.414241e+00 -6.844141e+00 26 38 0
-1.168421e+00 -1.985337e+00 -7.116465e+00 45 61 19
-2.792763e-01 1.727182e+00 -5.927363e+00 116 83 5
-4.299124e-01 1.727294e+00 -6.134808e+00 121 80 6
-7.039009e-01 1.631446e+00 -6.073319e+00 122 66 4
-7.867555e-01 1.377568e+00 -6.129239e+00 105 61 9
-7.376507e-01 1.359388e+00 -6.140119e+00 90 58 6
-5.605917e+00 3.559633e+00 -2.324143e+01 229 227 123
6.931784e-01 1.079744e+00 -6.992412e+00 70 71 4
-6.453214e+00 1.528307e+00 -1.776826e+01 215 203 86
-4.029919e+00 -1.040616e+00 -1.080924e+01 231 220 104
1.838857e+00 -2.530933e+00 -8.941263e+00 161 171 85
-6.076662e-01 1.625548e+00 -6.027049e+00 153 106 22
-5.754387e+00 2.891125e-02 -1.337280e+01 253 233 100
-5.754387e+00 2.891125e-02 -1.337280e+01 253 233 100
1.765806e+00 -2.673322e-01 -8.743546e+00 66 74 23
1.626088e+00 -3.443906e-01 -8.511981e+00 69 70 2
-4.740421e+00 -1.586173e+00 -9.579219e+00 235 212 89
-1.301697e+00 -2.784940e+00 -7.120063e+00 66 73 28
-1.125644e+00 -2.816860e+00 -7.190661e+00 73 82 29
-8.290259e-01 1.481170e+00 -6.212682e+00 121 73 0
-3.899567e-01 8.145848e-01 -6.216426e+00 50 53 6
-4.627353e-01 -2.494788e-01 -6.171633e+00 13 29 3
-4.611043e-01 1.486367e+00 -6.154687e+00 50 47 2
8.828864e-01 1.230956e+00 -7.215646e+00 55 53 3
-8.670185e-01 -6.634482e-01 -6.313688e+00 13 29 2
2.341240e+00 -2.413004e+00 -9.307076e+00 190 196 96
-1.737104e+00 -2.224995e+00 -7.203962e+00 50 68 26
-7.612137e-01 1.099736e+00 -6.293482e+00 107 71 3
-9.890085e-01 8.495602e-01 -6.318491e+00 116 72 2
-8.957509e-01 5.719113e-01 -6.260318e+00 10 24 2
-9.395027e-01 3.263877e-02 -6.487403e+00 4 15 1
-5.979651e-01 -4.933236e-01 -6.058456e+00 17 33 2
1.389798e+00 -9.617628e-01 -8.530890e+00 77 76 10
-1.569358e+00 -1.975634e+00 -6.777223e+00 44 62 22
-4.938031e-01 2.389440e-01 -6.552564e+00 18 28 0
-7.421922e-01 1.133657e-01 -6.748075e+00 47 55 6
-4.754138e+00 -6.547766e-01 -1.163281e+01 244 223 95
-3.058961e-01 -2.775917e-01 -6.072279e+00 18 31 0
-1.811260e+00 -1.055861e+00 -7.349622e+00 231 236 136
-8.822092e-01 -9.649898e-01 -6.166782e+00 21 41 3
-6.705699e-01 5.727362e-01 -6.355978e+00 51 58 2
-6.743352e-01 2.753537e-01 -6.519984e+00 52 60 3
9.757974e-01 -8.491097e-01 -8.409604e+00 84 86 13
1.921750e+00 -1.104240e+00 -8.274291e+00 1 6 0
-1.858367e-01 1.756698e+00 -5.951086e+00 106 82 12
-5.239195e-01 1.620531e+00 -5.975851e+00 119 82 7
-7.056796e-01 1.153134e+00 -6.315730e+00 71 42 2
-5.977220e+00 1.153048e+00 -1.607128e+01 232 216 99
6.008324e+00 -1.054826e+00 -1.491342e+01 215 203 82
-4.562403e+00 -8.134410e-01 -1.110977e+01 194 170 46
-4.616734e+00 -1.110786e+00 -1.063618e+01 235 214 87
-1.022010e+00 -2.782587e+00 -7.023287e+00 84 92 32
-1.755078e+00 -2.720703e+00 -6.906201e+00 167 169 82
1.862729e-01 1.825054e+00 -5.999135e+00 97 80 2
-1.251462e-01 1.761513e+00 -5.893373e+00 154 125 38
-4.997997e-01 1.793520e+00 -5.993093e+00 147 89 0
-8.405728e-01 8.086600e-01 -6.341163e+00 100 65 0
-5.275673e+00 2.430785e+00 -1.956485e+01 236 217 94
-4.575231e+00 8.645119e-02 -1.412246e+01 215 196 65
-2.321743e-01 -2.866663e+00 -7.218262e+00 65 70 15
-4.762292e-01 1.760861e+00 -5.985097e+00 220 170 41
-8.381843e-01 1.157678e+00 -6.178360e+00 122 73 4
-8.830234e-01 9.314871e-01 -6.221854e+00 131 83 13
-9.681936e-01 9.029428e-01 -6.239371e+00 130 78 9
-1.119931e+00 9.003582e-01 -6.301154e+00 122 73 0
-7.914054e-01 8.296822e-01 -6.270357e+00 91 58 0
-9.727254e-01 6.126277e-01 -6.170873e+00 17 30 4
-6.795462e-01 -4.027412e-01 -6.107138e+00 8 26 2
-4.109281e+00 -2.729994e-01 -1.431459e+01 232 218 85
1.696701e+00 -2.227946e+00 -9.129083e+00 96 107 45
-1.175210e+00 -2.752080e+00 -7.385623e+00 52 60 13
-4.989164e-01 -2.860988e+00 -7.508996e+00 86 94 35
5.191366e-01 1.498088e+00 -5.979954e+00 80 76 11
-1.099202e+00 1.042678e+00 -6.292640e+00 138 84 0
-5.356340e-01 8.344982e-01 -6.313226e+00 70 71 14
-1.113446e+00 7.845766e-01 -6.341863e+00 125 85 8
7.469185e+00 5.607291e-02 -1.854630e+01 216 198 70
-5.290244e+00 -3.259791e-01 -1.275358e+01 238 220 94
-1.017894e+00 -8.840174e-01 -6.306712e+00 10 28 3
-9.548363e-01 -1.013867e+00 -6.216346e+00 27 45 17
-3.918154e-02 -2.735162e+00 -7.265363e+00 159 169 98
2.023082e-01 1.581051e+00 -5.909820e+00 26 44 4
-2.694939e-02 1.345221e+00 -5.690199e+00 29 47 7
6.543471e+00 -1.385494e+00 -1.411397e+01 247 235 128
-4.059869e+00 -1.518925e+00 -9.822604e+00 248 247 155
-4.621468e-01 -1.829117e+00 -6.957222e+00 89 91 18
-7.000408e-02 -2.663988e+00 -7.340246e+00 38 50 0
6.490911e+00 -7.849362e-01 -1.562535e+01 222 206 80
1.360122e+00 6.345775e-01 -7.817197e+00 59 59 0
7.865341e+00 -5.629877e-01 -1.695901e+01 190 155 25
-2.361230e+00 -6.664753e-01 -7.450298e+00 230 216 83
-6.848564e-02 2.427800e-01 -6.913780e-02 0 255 0
-6.976983e-02 2.413272e-01 -1.191002e-01 255 255 0
-8.366179e-02 -8.077810e-01 -3.285292e-01 255 0 0
-8.142376e-02 -8.038514e-01 -3.783243e-01 255 255 0
-9.529532e-01 -7.452830e-01 -1.800640e-01 0 255 0
-9.451145e-01 -7.419453e-01 -2.293328e-01 255 255 0
