ply
format ascii 1.0
element face 0
property list uchar int vertex_indices
element vertex 653
property float x
property float y
property float z
property uchar diffuse_red
property uchar diffuse_green
property uchar diffuse_blue
end_header
-2.838483e-01 1.042018e+00 -8.268611e+00 191 128 0
-3.985166e-01 9.996120e-01 -8.272275e+00 168 104 10
-3.991686e-01 9.298200e-01 -8.256769e+00 134 88 0
-4.161276e-01 9.053387e-01 -8.276124e+00 123 77 0
-5.168161e-01 5.208913e-01 -8.422000e+00 82 52 0
-2.276020e+00 6.908605e-01 -1.254202e+01 193 171 30
2.676573e+00 6.529374e-02 -1.261847e+01 206 181 60
-2.372686e+00 -2.360215e-01 -1.064946e+01 207 187 57
-2.372686e+00 -2.360215e-01 -1.064946e+01 207 187 57
1.733265e+00 -3.686937e-01 -1.151124e+01 226 213 110
1.933317e+00 -4.002760e-01 -1.148368e+01 201 189 70
-2.155859e+00 -3.510918e-01 -1.050266e+01 233 214 83
-2.020657e+00 -4.282051e-01 -1.043393e+01 218 210 83
-2.277717e+00 -4.758393e-01 -1.023055e+01 238 210 84
1.537556e+00 -5.615659e-01 -1.103231e+01 219 225 139
8.192723e-01 -5.808413e-01 -9.694520e+00 28 36 20
8.192723e-01 -5.808413e-01 -9.694520e+00 28 36 20
-1.604602e-02 9.688105e-01 -8.281979e+00 64 73 17
-6.350825e-01 8.227344e-01 -8.447084e+00 166 101 0
-4.892853e-01 7.894792e-01 -8.357004e+00 72 44 0
-5.530482e-01 6.214247e-01 -8.386843e+00 110 66 0
-2.415555e+00 7.387971e-01 -1.264163e+01 209 199 79
-2.271763e+00 7.203464e-01 -1.247770e+01 238 219 87
-5.112168e-01 4.624285e-01 -8.455287e+00 56 37 0
-2.268782e+00 5.783690e-01 -1.233270e+01 233 216 66
-5.174666e-01 2.623032e-01 -8.490108e+00 38 43 9
2.788055e+00 1.633138e-01 -1.289693e+01 194 175 54
-1.939310e+00 1.656064e-01 -1.158818e+01 205 186 47
1.730065e+00 -3.364766e-01 -1.151950e+01 80 61 0
1.971681e+00 -3.844187e-01 -1.148168e+01 229 210 89
1.499487e+00 -6.028720e-01 -1.095923e+01 208 214 133
9.387820e-01 -5.005924e-01 -9.730286e+00 7 25 1
1.009995e+00 -9.522710e-01 -1.022221e+01 141 152 76
9.357935e-01 -1.202487e+00 -9.788092e+00 181 191 94
-1.081792e+00 -1.099860e+00 -8.654677e+00 214 221 141
2.296000e+00 1.934257e+00 -1.279222e+01 118 129 71
-2.415970e-01 9.617340e-01 -8.246648e+00 80 51 0
2.994027e-02 9.330472e-01 -8.271563e+00 27 43 0
-3.812263e-01 8.976289e-01 -8.273593e+00 80 52 0
-4.453113e-01 8.566101e-01 -8.304072e+00 73 46 0
-5.320017e-01 6.616542e-01 -8.365664e+00 92 47 0
-5.218734e-01 5.787668e-01 -8.397392e+00 90 50 0
-5.095086e-01 5.708636e-01 -8.451079e+00 112 80 23
-4.957268e-01 5.446542e-01 -8.457442e+00 58 30 0
-5.645714e-01 4.304962e-01 -8.419399e+00 88 63 12
-7.501803e-01 4.253668e-01 -8.458537e+00 36 40 4
2.783597e+00 1.500405e-01 -1.273121e+01 120 102 3
2.849556e+00 3.309888e-02 -1.267671e+01 192 169 50
-1.868757e+00 -1.005031e-01 -1.109707e+01 226 211 69
-2.171542e+00 -3.221569e-01 -1.054103e+01 160 141 10
-2.174964e+00 -3.237472e-01 -1.055106e+01 160 141 10
1.508660e+00 -5.391437e-01 -1.101471e+01 89 95 19
8.208571e-01 -4.640805e-01 -9.843642e+00 225 237 173
1.441474e+00 -6.347775e-01 -1.085834e+01 225 231 152
1.050129e+00 -9.391694e-01 -1.019386e+01 173 183 99
-1.109649e+00 -1.064763e+00 -8.755141e+00 63 72 6
-2.891138e-01 9.778812e-01 -8.234264e+00 136 89 0
-2.150255e-01 9.400477e-01 -8.253253e+00 67 60 13
-4.441541e-01 8.036320e-01 -8.320050e+00 59 50 3
-5.343641e-01 7.344961e-01 -8.320191e+00 117 73 9
-2.285657e+00 6.345033e-01 -1.235538e+01 206 185 42
-6.722697e-01 4.197239e-01 -8.427940e+00 31 20 0
-2.660524e+00 2.412735e-01 -1.153139e+01 228 206 69
-2.537084e+00 2.069689e-01 -1.150232e+01 222 196 57
-1.351781e-01 1.572737e-01 -8.287876e+00 29 40 1
8.841504e-01 -1.126246e+00 -9.780670e+00 162 173 81
-1.013543e+00 -9.253049e-01 -8.679352e+00 40 58 10
1.041642e+00 -1.204893e+00 -9.740700e+00 201 208 105
-3.618566e-01 9.857288e-01 -8.262956e+00 218 164 26
3.342757e-02 8.731809e-01 -8.288735e+00 23 40 4
-5.719314e-01 7.444497e-01 -8.305989e+00 119 66 0
-5.934640e-01 6.733168e-01 -8.339125e+00 124 71 1
-4.798813e-01 6.037997e-01 -8.426690e+00 52 26 0
-5.593449e-01 5.916210e-01 -8.375245e+00 132 88 9
-4.439071e-01 5.669105e-01 -8.411856e+00 73 65 3
-5.959718e-01 4.010990e-01 -8.407649e+00 14 13 0
3.344115e+00 4.930415e-01 -1.370470e+01 121 110 23
-5.939627e-01 3.519133e-01 -8.437389e+00 10 24 2
-4.679594e-01 -5.959437e-02 -8.246123e+00 15 28 0
2.165454e+00 -4.629337e-01 -1.142076e+01 215 202 76
7.092411e-01 -3.255955e-01 -1.001769e+01 63 68 1
-6.979761e-01 -4.679174e-01 -8.387837e+00 16 36 2
-8.604107e-01 -6.979357e-01 -8.464466e+00 25 48 6
8.315456e-01 -1.151701e+00 -9.631259e+00 166 175 82
9.584759e-01 -1.193574e+00 -9.613088e+00 202 208 110
5.988849e-01 -1.248407e+00 -9.387039e+00 162 172 83
7.747555e-01 -1.355850e+00 -9.286776e+00 181 189 93
4.083837e-02 1.003529e+00 -8.299254e+00 35 12 10
-2.745468e+00 -1.399142e-01 -1.076897e+01 247 223 91
2.099094e+00 -3.006770e-01 -1.174624e+01 226 206 78
-3.630735e-01 -1.310402e-01 -8.317805e+00 20 37 1
-2.385052e+00 -6.286208e-01 -9.991523e+00 237 217 86
-6.792374e-01 -3.377251e-01 -8.328464e+00 15 32 0
-6.289137e-01 -3.580481e-01 -8.398334e+00 15 31 2
7.477352e-01 -6.041803e-01 -9.639638e+00 3 4 7
1.458439e-01 8.726315e-01 -8.489783e+00 67 67 4
-4.200106e-01 6.948938e-01 -8.370977e+00 64 60 5
-4.410366e-01 4.783791e-01 -8.411845e+00 71 68 7
-4.416853e-01 4.747371e-01 -8.403327e+00 71 68 7
-4.422701e-01 4.756846e-01 -8.404509e+00 71 68 7
-6.067635e-01 4.526536e-01 -8.407747e+00 143 100 7
3.885899e-01 4.181575e-01 -8.832850e+00 63 64 0
-2.024982e+00 -3.862982e-01 -1.047717e+01 230 213 83
-2.251739e+00 -3.809370e-01 -1.037210e+01 188 163 34
-2.251318e+00 -3.815180e-01 -1.037247e+01 188 163 34
2.394398e+00 -5.063529e-01 -1.139755e+01 184 153 30
3.438247e-01 -9.128335e-01 -9.356259e+00 76 82 12
-1.906413e+00 -1.023103e+00 -9.133188e+00 235 236 142
6.777538e-01 -1.168763e+00 -9.638753e+00 127 135 60
-4.954032e-01 6.797481e-01 -8.383410e+00 57 25 0
2.911136e+00 -1.116390e-01 -1.239073e+01 210 186 59
-1.790140e+00 -5.933224e-01 -1.000638e+01 239 243 146
-7.542040e-01 -7.341242e-01 -8.430489e+00 29 51 13
-1.814781e-01 -1.518968e+00 -8.884025e+00 165 171 98
-3.921058e-01 6.186970e-01 -8.403587e+00 58 57 0
-5.499401e-01 3.792511e-01 -8.415052e+00 6 12 0
-4.711919e-01 -4.367964e-01 -8.385421e+00 16 33 0
1.350699e+00 -1.122940e+00 -9.898480e+00 226 229 126
5.924524e-01 -1.337703e+00 -9.287730e+00 166 176 87
-4.387254e-01 -1.021961e+00 -8.776223e+00 84 86 21
-2.527536e-01 -1.386749e+00 -8.849323e+00 34 49 8
4.488039e-01 5.301349e-01 -8.928478e+00 56 54 2
-9.035720e-01 -1.215770e+00 -8.635611e+00 26 38 0
-7.345704e-01 -9.883290e-01 -8.772998e+00 45 61 19
-2.578814e-01 9.718250e-01 -8.241641e+00 116 83 5
-3.356357e-01 9.419007e-01 -8.251523e+00 121 80 6
-4.855919e-01 9.159237e-01 -8.307967e+00 122 66 4
-5.306290e-01 7.802439e-01 -8.335384e+00 105 61 9
-5.049638e-01 7.716838e-01 -8.339510e+00 90 58 6
-2.112540e+00 1.075688e+00 -1.328260e+01 229 227 123
2.299085e-01 5.920989e-01 -8.754813e+00 70 71 4
-2.656047e+00 5.152419e-01 -1.217204e+01 215 203 86
-2.023249e+00 -4.760965e-01 -1.021279e+01 231 220 104
7.281478e-01 -1.210788e+00 -9.572608e+00 161 171 85
-4.341339e-01 9.146056e-01 -8.286648e+00 153 106 22
-2.631922e+00 -1.032706e-02 -1.101214e+01 253 233 100
-2.631922e+00 -1.032706e-02 -1.101214e+01 253 233 100
7.041795e-01 -1.151863e-01 -9.512165e+00 66 74 23
6.458091e-01 -1.514300e-01 -9.416909e+00 69 70 2
-2.370424e+00 -7.270329e-01 -9.643682e+00 235 212 89
-8.054125e-01 -1.401010e+00 -8.767029e+00 66 73 28
-7.142105e-01 -1.414556e+00 -8.799887e+00 73 82 29
-5.529196e-01 8.313902e-01 -8.374012e+00 121 73 0
-3.214863e-01 4.792611e-01 -8.383052e+00 50 53 6
-3.616337e-01 -8.606566e-02 -8.362803e+00 13 29 3
-3.574495e-01 8.356338e-01 -8.349948e+00 50 47 2
3.201937e-01 6.616446e-01 -8.856401e+00 55 53 3
-5.789404e-01 -3.075273e-01 -8.426810e+00 13 29 2
9.525049e-01 -1.143828e+00 -9.724438e+00 190 196 96
-1.030159e+00 -1.112437e+00 -8.813447e+00 50 68 26
-5.183135e-01 6.279917e-01 -8.415157e+00 107 71 3
-6.390143e-01 4.945925e-01 -8.409584e+00 116 72 2
-5.912484e-01 3.505682e-01 -8.400491e+00 10 24 2
-6.158084e-01 6.099589e-02 -8.508386e+00 4 15 1
-4.337640e-01 -2.161336e-01 -8.307269e+00 17 33 2
5.290964e-01 -4.545187e-01 -9.418329e+00 77 76 10
-9.494732e-01 -9.954343e-01 -8.628186e+00 44 62 22
-3.803267e-01 1.681610e-01 -8.541646e+00 18 28 0
-5.119941e-01 9.952807e-02 -8.629703e+00 47 55 6
-2.328299e+00 -3.013891e-01 -1.054829e+01 244 223 95
-2.766812e-01 -1.004858e-01 -8.316606e+00 18 31 0
-1.065589e+00 -5.087085e-01 -8.890851e+00 231 236 136
-5.876331e-01 -4.693949e-01 -8.356342e+00 21 41 3
-4.752551e-01 3.461791e-01 -8.472707e+00 51 58 2
-4.752020e-01 1.881312e-01 -8.524922e+00 52 60 3
3.299460e-01 -3.994423e-01 -9.363920e+00 84 86 13
8.019437e-01 -5.267215e-01 -9.322589e+00 1 6 0
-2.077594e-01 9.851738e-01 -8.253979e+00 106 82 12
-3.890013e-01 9.143408e-01 -8.264155e+00 119 82 7
-4.887531e-01 6.552446e-01 -8.425662e+00 71 42 2
-2.554392e+00 4.006996e-01 -1.171314e+01 232 216 99
2.186696e+00 -4.688804e-01 -1.159040e+01 215 203 82
-2.244221e+00 -3.713182e-01 -1.029593e+01 194 170 46
-2.296385e+00 -5.074137e-01 -1.013790e+01 235 214 87
-6.621195e-01 -1.408131e+00 -8.750326e+00 84 92 32
-1.046220e+00 -1.381027e+00 -8.694034e+00 167 169 82
-1.047555e-02 1.016017e+00 -8.277608e+00 97 80 2
-1.745223e-01 9.899174e-01 -8.226251e+00 154 125 38
-3.757976e-01 1.004981e+00 -8.273146e+00 147 89 0
-5.603966e-01 4.696720e-01 -8.425807e+00 100 65 0
-2.141188e+00 7.964261e-01 -1.257167e+01 236 217 94
-2.104922e+00 4.516460e-03 -1.123826e+01 215 196 65
-2.536983e-01 -1.442682e+00 -8.843987e+00 65 70 15
-3.632196e-01 9.878851e-01 -8.269187e+00 220 170 41
-5.596431e-01 6.641455e-01 -8.366876e+00 122 73 4
-5.835990e-01 5.439401e-01 -8.383802e+00 131 83 13
-6.290101e-01 5.268761e-01 -8.387990e+00 130 78 9
-7.096748e-01 5.242469e-01 -8.416381e+00 122 73 0
-5.350053e-01 4.864585e-01 -8.403813e+00 91 58 0
-6.323844e-01 3.747723e-01 -8.355379e+00 17 30 4
-4.774069e-01 -1.672028e-01 -8.325584e+00 8 26 2
-1.910499e+00 -1.445826e-01 -1.131375e+01 232 218 85
6.546452e-01 -1.061357e+00 -9.658949e+00 96 107 45
-7.399000e-01 -1.378954e+00 -8.911116e+00 52 60 13
-3.932151e-01 -1.429332e+00 -8.971392e+00 86 94 35
1.662953e-01 8.417414e-01 -8.269702e+00 80 76 11
-6.982109e-01 5.995834e-01 -8.412395e+00 138 84 0
-3.992393e-01 4.866183e-01 -8.425430e+00 70 71 14
-7.059651e-01 4.628753e-01 -8.435301e+00 125 85 8
2.471981e+00 -4.983466e-02 -1.251788e+01 216 198 70
-2.467075e+00 -1.591099e-01 -1.080729e+01 238 220 94
-6.596977e-01 -4.241034e-01 -8.418874e+00 10 28 3
-6.263679e-01 -4.939727e-01 -8.375398e+00 27 45 17
-1.548204e-01 -1.373000e+00 -8.866892e+00 159 169 98
-3.122056e-04 8.909399e-01 -8.234667e+00 26 44 4
-1.192827e-01 7.758032e-01 -8.125079e+00 29 47 7
2.452611e+00 -6.065921e-01 -1.134604e+01 247 235 128
-2.084514e+00 -7.070191e-01 -9.856623e+00 248 247 155
-3.693800e-01 -9.136774e-01 -8.723873e+00 89 91 18
-1.716156e-01 -1.328717e+00 -8.879966e+00 38 50 0
2.321957e+00 -3.598306e-01 -1.178448e+01 222 206 80
5.388585e-01 3.386423e-01 -9.108624e+00 59 59 0
2.730660e+00 -2.746631e-01 -1.211648e+01 190 155 25
-1.344918e+00 -3.067096e-01 -8.927265e+00 230 216 83
-4.078099e-01 9.482970e-01 -8.279033e+00 170 116 21
-2.074451e+00 1.027826e+00 -1.323643e+01 214 202 73
-6.802954e-01 2.089999e-01 -8.449129e+00 7 24 0
-2.228552e+00 -4.308918e-01 -1.025815e+01 239 211 85
-3.897120e-01 9.101848e-01 -8.247388e+00 121 82 10
-2.608291e-03 8.837575e-01 -8.212462e+00 16 37 0
-2.168500e+00 -3.099968e-02 -1.115173e+01 200 180 45
-1.922145e+00 -2.542617e-01 -1.072606e+01 234 218 77
3.657117e-01 3.056227e-01 -8.924716e+00 65 66 0
-2.067774e+00 2.530249e-01 -1.167485e+01 231 214 72
3.409238e-01 8.614105e-02 -9.062323e+00 78 80 7
-3.577698e-01 9.596409e-01 -8.247869e+00 151 106 0
-4.944039e-01 2.424518e-01 -8.506290e+00 38 48 0
-5.583455e-01 7.138699e-01 -8.357239e+00 109 64 0
-6.612227e-01 4.831385e-01 -8.408578e+00 115 66 0
-1.154443e+00 -1.177873e+00 -8.592487e+00 220 226 128
-5.604564e-01 6.907153e-01 -8.360095e+00 114 67 0
-1.477895e+00 6.016072e-01 -1.265535e+01 203 184 55
-1.643931e+00 -6.618212e-02 -1.121855e+01 215 203 87
-2.024603e+00 -4.521443e-01 -1.035171e+01 227 213 101
1.263313e-01 9.181753e-01 -8.340639e+00 70 66 14
-1.348174e+00 2.904826e-01 -7.338712e+00 78 82 4
-1.420788e+00 1.156228e-01 -1.160309e+01 177 166 48
-2.025605e+00 -5.105120e-01 -1.022829e+01 253 253 154
2.242733e-01 -1.131288e+00 -9.374741e+00 77 83 33
-2.154122e-01 9.439475e-01 -8.258981e+00 73 65 9
3.832610e+00 -1.624690e-01 -1.243503e+01 95 104 53
-1.621831e+00 4.492120e-01 -1.223888e+01 195 176 48
-1.624119e+00 4.465449e-01 -1.224821e+01 195 176 48
-1.668517e+00 1.096779e+00 -1.365478e+01 244 228 93
-2.978614e-01 -1.515954e+00 -8.861845e+00 140 150 79
-1.707749e+00 7.687696e-01 -1.284027e+01 233 215 87
-6.079956e-01 -5.328662e-01 -8.377646e+00 13 36 0
-3.976108e-01 -1.134136e+00 -8.832662e+00 59 62 5
-7.247979e-01 -3.986329e-01 -8.389984e+00 13 31 0
-5.581236e-01 3.953216e-01 -8.458012e+00 14 13 9
-2.033217e+00 -1.252978e-01 -1.091347e+01 238 220 94
-1.811282e+00 -6.239634e-01 -1.007743e+01 243 247 162
1.066050e+00 -1.480220e+00 -9.002850e+00 205 217 117
-2.573731e-01 -1.496627e+00 -8.626614e+00 174 186 104
-3.866078e-01 1.240952e+00 -8.665621e+00 234 178 9
-2.039767e-01 9.843135e-01 -8.249000e+00 110 79 10
4.949879e+00 6.442529e-01 -1.624129e+01 83 85 75
-6.612702e-01 2.209230e-01 -8.431288e+00 10 22 4
-2.383081e+00 -2.094291e-01 -1.070192e+01 245 225 94
-2.414454e+00 -5.901248e-01 -9.917985e+00 206 177 47
-2.895694e-01 -1.367396e+00 -8.802660e+00 37 50 10
-1.751099e-01 9.965685e-01 -8.241985e+00 157 118 27
-2.633316e+00 -4.778345e-02 -1.102441e+01 229 209 78
-2.659211e+00 7.844981e-02 -1.121432e+01 233 210 73
-2.166883e+00 -2.943964e-02 -1.114787e+01 200 180 45
8.988508e-01 -1.269332e+00 -9.455311e+00 198 209 107
-2.659038e+00 -3.486606e-01 -1.038443e+01 248 224 92
7.789100e-01 -3.374834e-01 -9.471459e+00 228 234 136
-3.707139e-01 -1.372301e+00 -8.784842e+00 85 92 43
3.598660e+00 7.441911e-03 -1.278512e+01 195 182 71
2.915559e+00 2.649425e-01 -1.314841e+01 168 147 40
2.856093e+00 3.096736e-01 -1.315546e+01 217 197 68
-3.202363e-01 9.493162e-01 -8.236854e+00 120 84 11
-3.015057e-01 9.397276e-01 -8.253943e+00 90 64 0
8.381634e+00 1.993186e+00 -1.829517e+01 142 172 163
-8.052187e-01 4.602133e-01 -8.538995e+00 38 51 4
-1.778874e+00 -1.918471e-01 -1.087616e+01 217 205 88
-2.517554e+00 -3.769793e-01 -1.034503e+01 187 172 43
8.463038e+00 2.098955e+00 -1.846426e+01 227 255 251
8.140853e+00 2.041093e+00 -1.833102e+01 128 161 140
-2.200151e+00 7.858519e-02 -1.120853e+01 237 219 95
-2.674755e+00 -1.420507e-01 -1.078006e+01 244 232 96
-2.369944e-01 -1.369311e+00 -8.828754e+00 40 54 18
-7.629232e-01 5.304370e-01 -8.486035e+00 135 90 0
-1.698659e+00 -4.047999e-02 -1.123326e+01 236 217 96
-2.077372e+00 2.603910e-01 -1.178688e+01 234 214 91
-1.674524e+00 7.972554e-02 -1.149702e+01 229 214 88
9.399917e-01 -1.089682e+00 -9.828101e+00 185 197 110
-1.709816e+00 6.122202e-01 -1.254721e+01 216 197 69
-1.759785e+00 -1.341717e-01 -1.106881e+01 224 209 88
-6.003220e-01 1.911005e+00 -1.305762e+01 97 103 58
-5.991824e-01 1.817273e+00 -1.314230e+01 13 21 0
-1.241721e+00 1.181273e+00 -1.372724e+01 191 165 44
-1.014123e+00 1.112980e+00 -1.377395e+01 215 186 68
-2.170973e+00 9.440414e-01 -1.300899e+01 197 182 80
-1.492030e+00 6.249476e-01 -1.263809e+01 228 195 79
-1.121263e+00 4.276667e-01 -1.233411e+01 179 159 45
-1.121263e+00 4.276667e-01 -1.233411e+01 179 159 45
3.346549e+00 -6.452373e-01 -1.140198e+01 192 159 60
3.079023e+00 -6.895250e-01 -1.125221e+01 191 161 63
-1.482374e+00 7.131157e-02 -1.155300e+01 191 168 55
2.769342e+00 -9.849294e-01 -1.047162e+01 240 219 121
3.898002e-01 -5.274631e-01 -9.291104e+00 88 84 13
-3.811372e-01 -1.479051e+00 -8.787889e+00 115 121 59
-2.916806e-01 -1.507902e+00 -8.747274e+00 157 159 89
-1.774070e-01 9.943347e-01 -8.232467e+00 160 126 36
-5.733407e-01 1.798811e+00 -1.328547e+01 134 142 104
-8.661188e-01 6.713108e-01 -8.865447e+00 151 113 42
-1.180780e+00 1.532729e+00 -1.443680e+01 250 228 109
-1.195424e+00 1.517490e+00 -1.437999e+01 255 233 113
3.823835e+00 -4.361533e-01 -1.187542e+01 225 189 92
-9.013386e-01 5.168983e-01 -1.253488e+01 204 179 60
3.629567e+00 -6.497542e-01 -1.157974e+01 213 179 73
-2.442408e+00 6.775665e-01 -1.244107e+01 216 204 90
3.037973e+00 -7.592588e-01 -1.113393e+01 193 165 68
2.969074e+00 -9.083816e-01 -1.074346e+01 189 162 62
-2.143699e+00 5.267945e-03 -1.112749e+01 253 228 107
1.804310e-01 -6.898167e-01 -9.191630e+00 82 79 10
-2.159187e+00 -3.563234e-01 -1.051615e+01 236 211 85
-1.804393e-01 1.017833e+00 -8.243041e+00 142 96 0
6.197864e-01 8.718274e-01 -8.567097e+00 43 50 15
1.493849e-01 4.783181e-01 -7.777725e+00 25 34 4
-6.225270e-01 1.876322e+00 -1.310189e+01 28 36 0
-6.245972e-01 5.249296e-01 -8.388200e+00 128 79 0
-7.627034e-01 5.376396e-01 -8.472205e+00 148 85 0
-2.070655e-01 9.050335e-02 -8.348991e+00 37 47 7
4.221116e+00 -3.097244e-01 -1.232993e+01 144 116 36
-2.138595e+00 6.728941e-01 -1.241997e+01 242 216 93
8.852365e-01 -3.375285e-01 -9.244961e+00 28 32 5
-1.896271e+00 2.675511e-01 -1.176232e+01 255 229 110
3.453963e+00 -1.110950e+00 -1.057027e+01 198 162 50
2.815681e+00 -1.114475e+00 -1.038422e+01 213 195 83
-9.117947e-01 -5.939440e-01 -8.515927e+00 49 61 24
8.377122e-01 -1.156233e+00 -9.683794e+00 180 178 89
-8.899777e-01 -9.499042e-01 -8.515312e+00 34 48 13
4.675059e-01 -1.519491e+00 -8.889703e+00 193 194 101
-6.457134e-01 8.870712e-01 -8.473303e+00 206 127 0
-6.837847e-01 8.411173e-01 -8.467334e+00 218 141 3
-7.229302e-01 6.989398e-01 -8.467573e+00 176 104 4
-1.412758e+00 1.198739e+00 -1.378614e+01 241 216 95
4.340931e+00 -3.315356e-01 -1.222889e+01 126 101 21
-1.868622e+00 8.914851e-01 -1.331233e+01 253 227 106
-1.841115e+00 7.504060e-01 -1.271701e+01 236 210 89
-1.325693e+00 2.938323e-01 -1.206660e+01 236 215 93
3.621605e+00 -9.660878e-01 -1.078924e+01 191 153 46
7.489558e-01 -5.947203e-01 -9.606106e+00 2 8 0
-2.098354e+00 6.788211e-02 -1.135784e+01 255 231 110
5.510490e-01 -1.397012e+00 -9.177700e+00 184 183 93
-2.393049e-01 -1.484598e+00 -8.841685e+00 94 95 35
-9.911485e-01 -1.194937e+00 -8.558474e+00 38 52 14
-7.091668e-01 8.060427e-01 -8.483309e+00 188 114 0
-6.227759e-01 7.077890e-01 -8.343821e+00 164 104 2
-4.003267e-01 5.151723e-01 -8.403856e+00 52 45 0
-7.069897e-01 5.380189e-01 -8.437428e+00 117 61 0
-1.075602e+00 1.174281e+00 -1.370489e+01 231 200 84
-1.124897e+00 1.053821e+00 -1.352715e+01 209 177 59
-1.670284e+00 1.084007e+00 -1.360290e+01 251 226 108
-1.182563e+00 8.654680e-01 -1.315546e+01 225 195 75
-1.963760e+00 6.287677e-01 -1.249920e+01 235 213 93
-1.675169e+00 5.050730e-01 -1.238891e+01 253 222 105
3.548475e+00 -6.684989e-01 -1.155836e+01 219 187 84
-1.380452e+00 3.746766e-01 -1.214281e+01 226 204 82
-5.263975e-01 -2.198603e-01 -8.312086e+00 23 32 4
-2.356272e+00 1.322492e-01 -1.140068e+01 246 229 97
-6.870539e-01 -4.781088e-01 -8.453299e+00 27 37 12
-6.147741e-01 -5.888374e-01 -8.388837e+00 33 45 6
7.796815e-01 -1.352052e+00 -9.297552e+00 196 193 100
-5.436889e-01 6.034449e-01 -8.399894e+00 126 83 3
-4.811236e-01 6.016447e-01 -8.432187e+00 49 23 0
-6.432504e-01 4.939544e-01 -8.398049e+00 118 70 4
-6.439914e-01 4.940904e-01 -8.394712e+00 118 70 4
-5.154490e-01 4.696503e-01 -8.431207e+00 74 44 0
-7.477730e-01 4.967424e-01 -8.478854e+00 144 89 0
-7.798688e-01 4.648812e-01 -8.516775e+00 34 23 0
-6.763505e-01 2.749021e-01 -8.446836e+00 31 48 16
-6.763505e-01 2.749021e-01 -8.446836e+00 31 48 16
-2.863168e-01 -1.044176e-01 -8.357003e+00 30 36 0
-3.599388e-01 -1.294315e-01 -8.332338e+00 30 40 5
-4.274215e-01 -2.212755e-01 -8.342300e+00 29 39 4
-7.236608e-01 -3.022546e-01 -8.358586e+00 33 46 14
-6.927047e-01 -3.279013e-01 -8.339764e+00 18 28 1
-8.125271e-01 -5.224310e-01 -8.448152e+00 21 32 0
-7.232538e-01 -6.547139e-01 -8.447350e+00 29 47 9
-2.167610e+00 -3.981606e-01 -1.039347e+01 239 214 89
-1.304333e+00 -1.070394e+00 -9.323515e+00 233 228 136
-6.238762e-01 9.356688e-01 -8.484580e+00 228 149 4
-6.546628e-01 8.200576e-01 -8.443106e+00 217 140 0
-5.849736e-01 -4.761672e-01 -8.392277e+00 34 48 12
-5.442800e-01 -5.628037e-01 -8.404558e+00 30 38 1
-7.805504e-01 -6.324943e-01 -8.425971e+00 1 15 0
7.271491e-01 -1.443031e+00 -9.055851e+00 210 207 114
-5.933351e-01 2.565333e-01 -8.430437e+00 1 5 1
-7.030143e-01 2.663380e-01 -8.489300e+00 30 50 15
-7.035477e-01 2.666972e-01 -8.486661e+00 30 50 15
3.082614e+00 -7.007882e-01 -1.112473e+01 186 156 56
-4.781514e-01 -4.569438e-01 -8.410889e+00 24 34 0
7.676872e-01 -7.873072e-01 -9.622683e+00 17 20 3
8.569751e-01 -1.165249e+00 -9.612285e+00 195 191 100
-1.342393e+00 5.537747e-01 -1.276365e+01 237 215 93
-5.426229e-01 4.751363e-01 -8.433693e+00 103 64 0
-2.249266e+00 -1.662965e-01 -1.085769e+01 247 213 89
-2.372520e+00 -2.615101e-01 -1.062987e+01 254 226 104
-2.210012e+00 -4.054520e-01 -1.031512e+01 244 209 83
-9.315209e-01 -1.013986e+00 -9.426736e+00 100 98 38
-1.341843e-02 1.000393e+00 -8.273456e+00 96 78 21
-6.555090e-01 1.839933e+00 -1.526192e+01 232 214 112
-4.746495e-01 9.848771e-01 -8.472258e+00 207 124 0
-6.204236e-01 1.495988e+00 -1.451351e+01 214 177 62
-3.763833e-01 9.201779e-01 -8.276590e+00 123 77 5
-1.161584e+00 1.155959e+00 -1.369591e+01 237 200 70
-5.183233e-01 9.542408e-01 -1.354568e+01 114 90 24
-1.226960e+00 6.316110e-01 -1.268678e+01 215 178 43
-1.454318e+00 6.587159e-01 -1.263869e+01 230 189 55
-1.408642e+00 6.412509e-01 -1.279109e+01 214 175 40
-5.850256e-01 3.908403e-01 -1.228756e+01 205 163 27
-1.756290e+00 5.851854e-01 -1.238637e+01 225 190 56
-3.737901e-01 1.056874e-01 -8.169345e+00 35 39 6
-2.341399e+00 -2.053557e-01 -1.068309e+01 199 168 41
-2.341399e+00 -2.053557e-01 -1.068309e+01 199 168 41
-1.214190e+00 1.983866e+00 -1.536021e+01 235 226 130
-6.646298e-01 7.378489e-01 -8.429451e+00 177 100 4
-2.093540e+00 1.032280e+00 -1.328690e+01 215 187 68
-4.989371e-01 5.248129e-01 -8.443073e+00 63 33 0
-4.546303e-01 3.149706e-01 -1.224500e+01 198 160 28
9.869499e-01 -2.721081e-01 -9.356994e+00 4 9 0
-2.145095e-01 -1.446065e+00 -8.786001e+00 153 153 90
-1.215295e+00 1.189279e+00 -1.365022e+01 199 164 36
-8.471577e-01 8.475845e-01 -1.325828e+01 213 175 50
-9.725600e-01 5.694100e-01 -1.262995e+01 185 148 18
-2.159902e+00 7.710374e-01 -1.267411e+01 230 193 60
3.375947e+00 -4.043211e-01 -1.191233e+01 191 155 43
3.439520e+00 -4.768844e-01 -1.177314e+01 194 153 39
3.691246e-01 2.194302e+00 -1.299287e+01 7 1 5
-5.813477e-01 9.440294e-01 -8.461307e+00 189 103 0
-2.525003e+00 1.274910e-01 -1.132594e+01 241 206 76
-2.467675e+00 7.094219e-02 -1.126061e+01 236 201 73
-2.635260e+00 -3.232229e-03 -1.105220e+01 255 227 97
4.258114e-01 -1.316622e+00 -9.355921e+00 174 167 87
-4.669876e-01 9.314754e-01 -8.285959e+00 99 30 0
-1.655909e+00 1.238492e+00 -1.390195e+01 245 213 78
-7.031297e-01 4.680170e-01 -8.427153e+00 130 81 4
-1.605670e+00 1.743739e-01 -1.165601e+01 228 199 61
-2.352798e+00 2.166110e-01 -1.140596e+01 236 203 72
-1.083831e+00 7.279095e-01 -1.285776e+01 209 172 40
-1.404470e+00 -1.080572e+00 -9.295814e+00 238 232 138
-1.400201e+00 -9.260875e-01 -9.581014e+00 229 223 127
-6.892792e-01 -2.874219e-01 -8.596765e+00 1 8 0
-2.411625e+00 -3.987798e-01 -1.036921e+01 251 220 98
-4.505613e-02 -1.706846e+00 -9.102496e+00 190 181 102
-1.554487e+00 6.764433e-01 -1.262281e+01 214 170 37
-2.470068e+00 -7.205562e-02 -1.104803e+01 254 226 101
-1.254587e+00 9.286081e+00 -3.794265e+01 57 69 27
-3.600278e+00 1.098462e+01 -4.025507e+01 76 86 56
-5.949435e-01 1.069501e+01 -4.103832e+01 0 6 0
-3.281880e+00 1.037417e+01 -4.038950e+01 3 15 0
-3.147849e+00 1.010291e+01 -4.058778e+01 96 106 53
-7.065324e+00 4.962915e+00 -3.036834e+01 87 95 26
5.132631e+00 2.605136e+00 -1.856788e+01 223 214 109
-6.769039e+00 4.415683e+00 -2.968812e+01 88 104 37
-6.460985e+00 3.782181e+00 -2.909686e+01 110 128 66
1.523616e+00 1.202011e+01 -4.528139e+01 106 122 75
-3.093254e+00 1.040775e+01 -4.047232e+01 131 141 104
-4.192232e+00 1.009898e+01 -4.062019e+01 84 100 51
-5.145061e+00 5.953894e+00 -3.208486e+01 44 53 0
-3.612668e+00 9.939797e+00 -4.036275e+01 91 106 50
5.526350e+00 1.912719e+01 -4.798845e+01 189 214 132
9.343296e+00 1.897386e+01 -4.837801e+01 217 233 143
5.389013e+00 2.598248e+00 -1.874092e+01 215 203 93
4.230784e+00 1.502362e+00 -1.604164e+01 18 23 4
2.289330e+01 5.719947e+00 -4.896944e+01 99 112 81
2.381694e+01 5.920376e+00 -5.109765e+01 17 32 7
3.664739e+00 8.969500e-01 -1.466185e+01 28 35 11
5.035455e+00 7.285923e-01 -1.486112e+01 110 119 88
4.547362e+00 6.101533e-01 -1.429830e+01 9 20 0
4.476545e+00 5.025645e-01 -1.407608e+01 4 7 2
3.905356e+00 1.957058e-01 -1.342985e+01 175 160 47
3.768152e+00 1.131787e-01 -1.311220e+01 147 131 33
3.480484e+00 6.847159e-01 -1.414737e+01 57 57 5
3.287958e+00 6.627864e-01 -1.404459e+01 193 187 97
7.250893e+00 1.853282e+01 -4.716729e+01 184 202 126
3.933545e+00 3.331479e-01 -1.361915e+01 112 99 3
4.244034e+00 2.517136e-01 -1.358172e+01 124 109 17
7.320790e+00 1.816972e+01 -4.716669e+01 82 98 23
3.725639e+00 8.131816e-01 -1.447416e+01 7 10 1
5.456872e+00 2.385069e+00 -1.831702e+01 171 160 55
8.388355e-01 2.036908e+01 -4.893315e+01 173 207 126
2.393501e+01 1.531391e+01 -4.335190e+01 162 152 98
9.612164e+00 1.922878e+01 -4.944865e+01 151 169 82
1.989026e+00 1.585173e+01 -4.294926e+01 163 173 79
-4.960494e-01 1.567120e+01 -4.456311e+01 162 159 116
-2.150006e+00 1.639873e+01 -4.605422e+01 2 9 0
-3.162405e+00 1.372796e+01 -4.045228e+01 117 126 103
-3.162405e+00 1.372796e+01 -4.045228e+01 117 126 103
-1.858035e+00 1.585460e+01 -4.656965e+01 150 159 127
-3.883860e+00 1.242497e+01 -4.034595e+01 70 91 33
-3.789277e+00 1.137429e+01 -3.962815e+01 78 96 52
-3.504735e+00 1.120888e+01 -4.068665e+01 4 13 0
3.036783e+00 1.962416e+01 -4.810928e+01 189 219 139
1.256719e+00 1.456006e+01 -3.967277e+01 56 67 0
1.256719e+00 1.456006e+01 -3.967277e+01 56 67 0
2.099262e+00 1.581076e+01 -4.324950e+01 123 129 25
-3.300279e+00 1.520177e+01 -4.090755e+01 84 85 9
-2.036820e+00 1.626756e+01 -4.516180e+01 64 70 21
-2.742946e+00 1.557546e+01 -4.439406e+01 18 32 0
-1.983368e+00 1.596597e+01 -4.645303e+01 8 21 0
-3.200836e+00 1.353057e+01 -4.048658e+01 7 19 1
-2.037930e+00 1.554492e+01 -4.636769e+01 1 8 0
-2.037930e+00 1.554492e+01 -4.636769e+01 1 8 0
-2.360200e+00 1.493040e+01 -4.676075e+01 156 166 109
-3.792217e+00 1.235900e+01 -4.067263e+01 13 31 0
-2.743237e+00 1.462782e+01 -4.373630e+01 159 182 130
-2.743237e+00 1.462782e+01 -4.373630e+01 159 182 130
-3.240355e+00 1.316647e+01 -4.030029e+01 157 170 126
1.209735e+01 5.295954e+00 -2.505902e+01 4 14 0
-3.624859e+00 1.113250e+01 -4.090657e+01 74 86 54
1.655811e+01 6.876102e+00 -2.871606e+01 236 254 244
-3.925808e+00 9.525325e+00 -3.987779e+01 87 107 54
7.783265e+00 1.442075e+00 -1.699137e+01 68 98 73
-1.931030e+00 1.619852e+01 -4.580478e+01 5 14 0
-2.463797e+00 1.576520e+01 -4.479338e+01 159 171 115
-2.806132e+00 1.835327e+01 -4.611300e+01 16 28 3
-1.347303e+00 1.703551e+01 -4.389921e+01 12 16 0
-2.505751e+00 1.527983e+01 -4.047950e+01 255 255 189
-3.573927e+00 1.106195e+01 -3.933488e+01 1 14 5
-3.856723e+00 1.055362e+01 -4.039263e+01 1 7 1
-2.797992e+00 1.559482e+01 -4.280839e+01 17 20 0
-3.006039e+00 1.442683e+01 -4.260948e+01 2 12 4
-5.928955e-01 1.918530e+00 -1.308661e+01 97 103 58
-1.703810e+00 -1.970108e-01 -1.090991e+01 255 250 150
1.869789e+01 1.424094e+00 -3.018980e+01 72 103 68
5.290973e+00 -3.667617e-01 -1.247601e+01 123 97 10
4.361830e+00 -3.688764e-01 -1.218739e+01 141 110 27
5.105157e+00 -5.677703e-01 -1.206393e+01 132 103 9
-1.581580e+00 7.486450e-01 -1.279508e+01 207 176 59
4.268475e+00 -9.486707e-01 -1.108315e+01 196 163 56
2.626246e+01 8.081360e+00 -3.194405e+01 152 204 166
4.977065e+00 -2.865166e-01 -1.249409e+01 130 106 19
4.977065e+00 -2.865166e-01 -1.249409e+01 130 106 19
5.227442e+00 -4.126351e-01 -1.249914e+01 190 165 66
5.227442e+00 -4.126351e-01 -1.249914e+01 190 165 66
4.845520e+00 -4.801372e-01 -1.204401e+01 116 85 3
4.773391e+00 -3.314838e-01 -1.234656e+01 204 181 86
3.783614e+00 -1.011268e+00 -1.066717e+01 195 158 51
2.532764e+01 7.230031e+00 -2.974538e+01 159 216 175
4.619896e+00 -4.175833e-01 -1.216872e+01 120 92 10
-6.514053e-01 -4.142552e-01 -8.406311e+00 18 28 1
-1.871532e+00 -1.065850e-01 -1.109076e+01 235 210 91
-1.665006e+00 1.729812e+00 -1.606139e+01 156 152 63
-2.333280e+00 -2.750677e-01 -1.064792e+01 254 220 100
-1.508387e-01 -1.183580e+00 -8.916490e+00 142 138 67
-1.686589e+00 1.388664e+00 -1.334044e+01 239 217 97
-4.440237e-01 8.593368e-01 -8.282380e+00 84 49 0
-2.345825e+00 6.864249e-02 -1.128511e+01 228 198 68
-1.806910e+00 3.561535e-01 -1.199565e+01 253 223 89
-2.369884e+00 -7.143207e-01 -9.634160e+00 242 211 87
-6.093737e-01 1.033045e+00 -1.358517e+01 208 176 63
-1.870208e+00 8.294439e-01 -1.287419e+01 255 226 90
-1.279595e+00 5.904759e-01 -1.259698e+01 248 212 76
-2.190295e+00 6.487931e-01 -1.241229e+01 244 207 74
-2.014485e+00 1.522789e-01 -1.152602e+01 255 224 91
3.914854e-01 2.083532e+00 -1.279700e+01 87 82 45
-1.065256e-01 1.266745e+00 -1.306047e+01 154 147 76
-1.652522e+00 1.232407e+00 -1.382717e+01 245 213 78
5.791079e-01 -1.416377e+00 -9.119307e+00 201 194 106
1.309373e+00 -1.121886e+00 -9.811739e+00 230 222 131
-2.080113e+00 -4.954899e-01 -1.026011e+01 244 218 92
-1.343880e+00 5.146588e-01 -1.253358e+01 243 209 73
-1.869245e+00 3.732034e-01 -6.103420e+00 206 165 49
8.894123e-01 -1.500370e-01 -9.499118e+00 241 232 144
-1.190176e-01 9.781241e-01 -8.210275e+00 128 106 29
-2.890601e-01 9.636787e-01 -8.263664e+00 126 80 7
-3.590946e-01 9.323891e-01 -8.258012e+00 133 79 10
3.803424e-01 2.356737e+00 -1.302622e+01 119 120 64
8.221197e-02 3.619589e+00 -1.885322e+01 133 123 44
-4.061593e-01 1.665808e+00 -1.285898e+01 32 31 10
-1.088796e+00 1.614018e+00 -1.460861e+01 254 222 93
3.631988e+00 -4.961241e-01 -1.165599e+01 197 159 58
-5.603287e-01 -6.615561e-02 -8.597498e+00 25 31 4
3.544370e+00 -9.080400e-01 -1.078343e+01 189 159 47
-1.542788e+00 2.900635e-02 -1.133299e+01 191 167 45
-2.200556e+00 -4.617050e-01 -1.026307e+01 252 218 92
-2.262847e+00 -5.453641e-01 -1.010367e+01 249 215 92
-2.424885e-01 9.626187e-01 -8.241739e+00 95 59 0
4.095041e-01 2.276425e+00 -1.302747e+01 129 126 78
1.115761e-01 3.665597e+00 -1.878390e+01 241 230 142
7.901671e+00 -1.456383e-01 -1.757386e+01 124 99 16
4.393379e+00 -3.865946e-01 -1.234796e+01 187 156 58
4.096808e+00 -4.250403e-01 -1.207659e+01 186 152 44
3.015389e-02 5.391408e-01 -1.283952e+01 163 129 17
2.958453e+00 -8.263156e-01 -1.083161e+01 237 217 123
-2.267974e+00 -5.232434e-01 -1.013981e+01 232 198 75
-2.345275e+00 -7.194689e-01 -9.724555e+00 241 216 91
-5.584809e-01 9.998956e-01 -8.400321e+00 238 153 7
-7.122230e-01 7.142468e-01 -8.431946e+00 187 104 3
-8.261661e-01 6.233441e-01 -8.682081e+00 170 98 0
7.991014e-02 1.333233e+00 -1.299920e+01 65 62 3
7.991014e-02 1.333233e+00 -1.299920e+01 65 62 3
2.061085e-01 1.237251e+00 -1.322205e+01 66 67 5
2.061085e-01 1.237251e+00 -1.322205e+01 66 67 5
-1.464152e+00 2.731670e-01 -8.046240e+00 29 21 2
-4.426269e-01 7.493450e-01 -1.319220e+01 144 114 0
7.377842e-01 -5.986826e-01 -9.575675e+00 4 2 0
-1.579941e+00 -2.387842e-02 -1.131603e+01 194 171 48
-8.025754e-01 5.643061e-01 -8.548970e+00 164 90 0
-8.405882e-01 4.423864e-01 -8.496570e+00 42 47 7
-1.436988e+00 1.377717e+00 -1.406508e+01 246 215 91
-3.076156e-01 3.859913e-01 -1.247072e+01 212 173 37
3.346214e+00 -8.186104e-01 -1.088514e+01 207 180 67
-1.808739e+00 2.900994e-01 -1.189798e+01 214 183 56
-6.092602e-01 -8.387757e-01 -8.482706e+00 49 55 17
-1.048307e+00 -1.367999e+00 -8.836913e+00 163 155 82
-7.495395e-01 6.781356e-01 -8.442384e+00 174 94 0
4.420421e-03 1.296920e+00 -1.307155e+01 54 61 15
4.173567e+00 -8.550204e-01 -1.141078e+01 211 181 69
-1.687086e+00 4.950611e-01 -1.229036e+01 252 222 92
-2.050241e+00 2.404536e-01 -1.154488e+01 247 214 88
-1.847647e+00 -1.611476e-01 -1.091821e+01 244 215 88
-1.920446e+00 -2.517264e-01 -1.080084e+01 243 214 84
-7.981778e-01 5.214953e-01 -8.547402e+00 168 103 12
-5.615550e-02 1.402868e+00 -1.303905e+01 147 143 70
-5.615550e-02 1.402868e+00 -1.303905e+01 147 143 70
-5.664464e-01 2.574227e-01 -8.518132e+00 4 6 0
-1.836776e+00 -2.386473e-01 -1.077673e+01 232 202 84
6.031087e-01 -1.413853e+00 -9.027631e+00 200 194 106
-1.122669e+00 -1.038146e+00 -9.433989e+00 218 209 112
-1.066459e+00 -1.338667e+00 -8.933071e+00 166 159 79
-8.701087e-01 5.696780e-01 -8.932547e+00 162 157 76
-4.936536e-01 2.157141e-01 -8.524902e+00 64 62 10
-7.652796e-01 2.061740e-01 -8.533722e+00 18 31 1
-1.744345e+00 -1.438345e-01 -1.102451e+01 225 199 75
-9.265292e-01 -5.881268e-01 -9.033324e+00 61 70 27
-7.236240e-01 -6.514454e-01 -8.425573e+00 35 46 17
-6.021707e-01 1.013646e+00 -8.483428e+00 195 103 2
-8.679169e-01 -8.882552e-01 -8.484228e+00 36 47 17
-3.568827e-02 1.169216e+00 -1.321972e+01 153 146 66
-4.246309e-01 7.495885e-01 -1.345627e+01 168 131 13
-5.936096e-01 3.694672e-01 -8.555250e+00 9 18 0
4.382993e-01 -1.495602e+00 -8.851839e+00 200 194 106
-7.695350e-01 6.707331e-01 -8.696123e+00 186 107 2
-2.410494e-02 3.145850e-01 -4.626696e+00 0 255 0
-2.691803e-02 3.114931e-01 -4.676521e+00 255 255 0
-5.014628e-02 -4.004314e-01 -4.818940e+00 255 0 0
-4.971833e-02 -3.967446e-01 -4.868802e+00 255 255 0
-6.388927e-01 -3.656668e-01 -4.648937e+00 0 255 0
-6.319090e-01 -3.626061e-01 -4.698352e+00 255 255 0
-1.453336e+00 -2.855438e-01 -4.854327e+00 255 0 0
-1.437615e+00 -2.834496e-01 -4.901745e+00 255 255 0
-1.535634e+00 8.266458e-01 -5.064136e+00 0 255 0
-1.525986e+00 8.179059e-01 -5.112411e+00 255 255 0
-2.098714e+00 -1.623928e-01 -4.905070e+00 255 0 0
-2.081418e+00 -1.604695e-01 -4.951944e+00 255 255 0
-2.633781e+00 4.285058e-02 -5.267331e+00 0 255 0
-2.609909e+00 4.197626e-02 -5.311256e+00 255 255 0
