ply
format ascii 1.0
element face 0
property list uchar int vertex_indices
element vertex 943
property float x
property float y
property float z
property uchar diffuse_red
property uchar diffuse_green
property uchar diffuse_blue
end_header
-1.001451e+00 5.808973e-01 -1.190515e+01 228 195 79
-7.584662e-01 4.529701e-01 -1.170241e+01 179 159 45
-7.584662e-01 4.529701e-01 -1.170241e+01 179 159 45
2.221708e+00 -2.370278e-01 -1.115800e+01 192 159 60
1.998843e+00 -2.642541e-01 -1.100432e+01 191 161 63
-9.934731e-01 2.182446e-01 -1.116186e+01 191 168 55
1.801773e+00 -4.576174e-01 -1.050547e+01 240 219 121
1.941607e-01 -1.570842e-01 -9.663622e+00 88 84 13
-2.989182e-01 -7.564321e-01 -9.330536e+00 115 121 59
-2.425311e-01 -7.743508e-01 -9.305095e+00 157 159 89
-1.817466e-01 7.983916e-01 -8.979337e+00 160 126 36
-3.997632e-01 1.362650e+00 -1.236655e+01 134 142 104
-6.097099e-01 5.955371e-01 -9.385011e+00 151 113 42
-7.954772e-01 1.197582e+00 -1.318748e+01 250 228 109
-8.054000e-01 1.186583e+00 -1.314571e+01 255 233 113
2.569781e+00 -9.803513e-02 -1.150450e+01 225 189 92
-6.139135e-01 5.130318e-01 -1.184563e+01 204 179 60
2.396840e+00 -2.386945e-01 -1.125648e+01 213 179 73
-1.619074e+00 6.096624e-01 -1.176136e+01 216 204 90
1.969011e+00 -3.097775e-01 -1.092405e+01 193 165 68
1.945001e+00 -4.087641e-01 -1.069548e+01 189 162 62
-1.418315e+00 1.727174e-01 -1.086732e+01 253 228 107
6.033466e-02 -2.602155e-01 -9.598734e+00 82 79 10
-1.424530e+00 -5.865237e-02 -1.046100e+01 236 211 85
-1.836565e-01 8.131883e-01 -8.986037e+00 142 96 0
3.263844e-01 7.280072e-01 -9.194835e+00 43 50 15
1.899585e-02 4.739813e-01 -8.687471e+00 25 34 4
-4.317796e-01 1.414598e+00 -1.225327e+01 28 36 0
-4.598633e-01 5.024289e-01 -9.078769e+00 128 79 0
-5.446125e-01 5.116089e-01 -9.131121e+00 148 85 0
-1.971311e-01 2.313195e-01 -9.052126e+00 37 47 7
2.824709e+00 -1.236704e-02 -1.178877e+01 144 116 36
-1.422230e+00 6.079070e-01 -1.174803e+01 242 216 93
5.062250e-01 -3.520265e-02 -9.629516e+00 28 32 5
-1.261995e+00 3.433299e-01 -1.129538e+01 255 229 110
2.290610e+00 -5.453378e-01 -1.060746e+01 198 162 50
1.825631e+00 -5.416452e-01 -1.044034e+01 213 195 83
-6.360210e-01 -1.996613e-01 -9.158633e+00 49 61 24
4.927727e-01 -5.605140e-01 -9.930643e+00 180 178 89
-6.218075e-01 -4.229936e-01 -9.156555e+00 34 48 13
2.482954e-01 -7.886979e-01 -9.415574e+00 193 194 101
-4.741925e-01 7.301572e-01 -9.132848e+00 206 127 0
-4.969705e-01 7.014321e-01 -9.129586e+00 218 141 3
-5.224125e-01 6.109316e-01 -9.127345e+00 176 104 4
-9.504262e-01 9.666104e-01 -1.271402e+01 241 216 95
2.950740e+00 -2.706722e-02 -1.177594e+01 126 101 21
-1.249501e+00 7.575623e-01 -1.237275e+01 253 227 106
-1.229562e+00 6.619459e-01 -1.195860e+01 236 210 89
-8.949025e-01 3.601114e-01 -1.147640e+01 236 215 93
2.455906e+00 -4.551816e-01 -1.080688e+01 191 153 46
4.292883e-01 -2.001724e-01 -9.872594e+00 2 8 0
-1.390149e+00 2.135422e-01 -1.102455e+01 255 231 110
3.038192e-01 -7.119800e-01 -9.600844e+00 184 183 93
-2.074166e-01 -7.612535e-01 -9.369313e+00 94 95 35
-6.846888e-01 -5.767847e-01 -9.182615e+00 38 52 14
-5.153184e-01 6.787425e-01 -9.137917e+00 188 114 0
-4.597177e-01 6.169344e-01 -9.050204e+00 164 104 2
-3.190885e-01 4.971871e-01 -9.088163e+00 52 45 0
-5.131048e-01 5.076753e-01 -9.106056e+00 117 61 0
-7.271043e-01 9.529786e-01 -1.265218e+01 231 200 84
-7.593537e-01 8.687684e-01 -1.253698e+01 209 177 59
-1.120142e+00 8.876913e-01 -1.258061e+01 251 226 108
-7.988876e-01 7.421741e-01 -1.226253e+01 225 195 75
-1.308607e+00 5.807974e-01 -1.180691e+01 235 213 93
-1.119780e+00 4.980552e-01 -1.170306e+01 253 222 105
2.338148e+00 -2.509508e-01 -1.123680e+01 219 187 84
-9.278014e-01 4.163935e-01 -1.156297e+01 226 204 82
-3.966017e-01 3.584550e-02 -9.029069e+00 23 32 4
-1.556030e+00 2.540347e-01 -1.105208e+01 246 229 97
-5.006377e-01 -1.257580e-01 -9.105468e+00 27 37 12
-4.503573e-01 -1.952936e-01 -9.077740e+00 33 45 6
4.507370e-01 -6.828922e-01 -9.676637e+00 196 193 100
-4.095418e-01 5.518398e-01 -9.085442e+00 126 83 3
-3.703764e-01 5.509117e-01 -9.105064e+00 49 23 0
-4.702490e-01 4.835068e-01 -9.087083e+00 118 70 4
-4.725400e-01 4.825769e-01 -9.081035e+00 118 70 4
-3.941401e-01 4.656205e-01 -9.098054e+00 74 44 0
-5.377028e-01 4.844089e-01 -9.133015e+00 144 89 0
-5.570334e-01 4.640915e-01 -9.158948e+00 34 23 0
-4.916715e-01 3.452162e-01 -9.114644e+00 31 48 16
-4.916715e-01 3.452162e-01 -9.114644e+00 31 48 16
-2.461979e-01 1.090458e-01 -9.057003e+00 30 36 0
-2.925160e-01 9.298213e-02 -9.041524e+00 30 40 5
-3.341906e-01 3.519029e-02 -9.048729e+00 29 39 4
-5.195877e-01 -1.640582e-02 -9.059110e+00 33 46 14
-5.002540e-01 -3.234230e-02 -9.046949e+00 18 28 1
-5.743660e-01 -1.543426e-01 -9.115077e+00 21 32 0
-5.180471e-01 -2.374028e-01 -9.114677e+00 29 47 9
-1.429519e+00 -8.617460e-02 -1.037714e+01 239 214 89
-8.799275e-01 -5.038781e-01 -9.673488e+00 233 228 136
-4.602123e-01 7.610934e-01 -9.141248e+00 228 149 4
-4.795681e-01 6.877706e-01 -9.113529e+00 217 140 0
-4.318649e-01 -1.250239e-01 -9.080460e+00 34 48 12
-4.063715e-01 -1.791638e-01 -9.087200e+00 30 38 1
-5.539653e-01 -2.232075e-01 -9.101457e+00 1 15 0
4.111134e-01 -7.376574e-01 -9.513700e+00 210 207 114
-4.396290e-01 3.340103e-01 -9.103801e+00 1 5 1
-5.093192e-01 3.397012e-01 -9.136934e+00 30 50 15
-5.085141e-01 3.400829e-01 -9.139939e+00 30 50 15
2.005745e+00 -2.710451e-01 -1.092578e+01 186 156 56
-3.651079e-01 -1.126644e-01 -9.091434e+00 24 34 0
4.441937e-01 -3.234630e-01 -9.887236e+00 17 20 3
5.042660e-01 -5.659069e-01 -9.883891e+00 195 191 100
-9.031475e-01 5.356174e-01 -1.199387e+01 237 215 93
-4.087412e-01 4.712870e-01 -9.105724e+00 103 64 0
-1.484087e+00 6.211109e-02 -1.069031e+01 247 213 89
-1.561455e+00 5.191619e-04 -1.053934e+01 254 226 104
-1.455953e+00 -8.996075e-02 -1.032992e+01 244 209 83
-6.412843e-01 -4.708259e-01 -9.754029e+00 100 98 38
-7.879047e-02 8.025820e-01 -9.003990e+00 96 78 21
-4.391827e-01 1.418691e+00 -1.379972e+01 232 214 112
-3.675809e-01 7.917170e-01 -9.130135e+00 207 124 0
-4.196039e-01 1.177938e+00 -1.325075e+01 214 177 62
-3.070329e-01 7.503106e-01 -9.005295e+00 123 77 5
-7.831819e-01 9.404510e-01 -1.265923e+01 237 200 70
-3.557274e-01 8.099404e-01 -1.257158e+01 114 90 24
-8.271849e-01 5.871444e-01 -1.194221e+01 215 178 43
-9.762139e-01 6.039057e-01 -1.191159e+01 230 189 55
-9.459836e-01 5.931498e-01 -1.201394e+01 214 175 40
-4.074227e-01 4.312492e-01 -1.167523e+01 205 163 27
-1.173093e+00 5.531254e-01 -1.173370e+01 225 190 56
-3.032039e-01 2.398953e-01 -8.937838e+00 35 39 6
-1.541834e+00 3.697556e-02 -1.057249e+01 199 168 41
-1.541834e+00 3.697556e-02 -1.057249e+01 199 168 41
-8.166434e-01 1.514010e+00 -1.386754e+01 235 226 130
-4.864840e-01 6.354362e-01 -9.102492e+00 177 100 4
-1.397259e+00 8.498059e-01 -1.235827e+01 215 187 68
-3.813988e-01 5.026777e-01 -9.111715e+00 63 33 0
-3.219930e-01 3.821114e-01 -1.164701e+01 198 160 28
5.795292e-01 6.074244e-03 -9.714185e+00 4 9 0
-1.887640e-01 -7.389612e-01 -9.341209e+00 153 153 90
-8.191087e-01 9.611145e-01 -1.262162e+01 199 164 36
-5.756352e-01 7.348774e-01 -1.235223e+01 213 175 50
-6.601873e-01 5.477180e-01 -1.190997e+01 185 148 18
-1.437421e+00 6.739033e-01 -1.192903e+01 230 193 60
2.206375e+00 -7.555143e-02 -1.144827e+01 191 155 43
2.244259e+00 -1.228143e-01 -1.135235e+01 194 153 39
2.231330e-01 1.629635e+00 -1.216903e+01 7 1 5
-4.351583e-01 7.649416e-01 -9.120446e+00 189 103 0
-1.663658e+00 2.500745e-01 -1.100058e+01 241 206 76
-1.626456e+00 2.138365e-01 -1.095758e+01 236 201 73
-1.731515e+00 1.655370e-01 -1.081441e+01 255 227 97
2.244542e-01 -6.605550e-01 -9.712546e+00 174 167 87
-3.637616e-01 7.570997e-01 -9.011776e+00 99 30 0
-1.110783e+00 9.940960e-01 -1.280080e+01 245 213 78
-5.096241e-01 4.660863e-01 -9.101306e+00 130 81 4
-1.073296e+00 2.844394e-01 -1.123412e+01 228 199 61
-1.554286e+00 3.082215e-01 -1.105686e+01 236 203 72
-7.329945e-01 6.523334e-01 -1.206789e+01 209 172 40
-9.411539e-01 -5.132784e-01 -9.668038e+00 238 232 138
-9.382167e-01 -4.148746e-01 -9.849747e+00 229 223 127
-4.965633e-01 -7.637294e-03 -9.211955e+00 1 8 0
-1.584501e+00 -8.698307e-02 -1.036671e+01 251 220 98
-7.641057e-02 -9.074549e-01 -9.548600e+00 190 181 102
-1.041827e+00 6.149186e-01 -1.189951e+01 214 170 37
-1.626205e+00 1.218781e-01 -1.081486e+01 254 226 101
-8.233184e-01 8.120935e+00 -3.470661e+01 57 69 27
-2.879684e+00 9.818226e+00 -3.748066e+01 76 86 56
-2.401680e-01 9.726773e+00 -3.859295e+01 0 6 0
-2.603033e+00 9.321354e+00 -3.771435e+01 3 15 0
-2.487691e+00 9.096360e+00 -3.792973e+01 96 106 53
-5.308594e+00 4.003249e+00 -2.639136e+01 87 95 26
3.632212e+00 2.037658e+00 -1.632360e+01 223 214 109
-5.048433e+00 3.556325e+00 -2.573548e+01 88 104 37
-4.875965e+00 3.112292e+00 -2.553504e+01 110 128 66
1.807944e+00 1.159109e+01 -4.451361e+01 106 122 75
-2.440026e+00 9.367177e+00 -3.783511e+01 131 141 104
-3.396528e+00 9.066244e+00 -3.789018e+01 84 100 51
-3.881110e+00 4.867629e+00 -2.807772e+01 44 53 0
-2.890515e+00 8.932617e+00 -3.767911e+01 91 106 50
5.788118e+00 1.898350e+01 -4.840275e+01 189 214 132
9.688096e+00 1.917154e+01 -4.941805e+01 217 233 143
3.786956e+00 2.025093e+00 -1.638171e+01 215 203 93
2.869878e+00 1.221215e+00 -1.432001e+01 18 23 4
2.439856e+00 7.980509e-01 -1.331348e+01 28 35 11
3.450546e+00 7.095924e-01 -1.359242e+01 110 119 88
3.069923e+00 6.185563e-01 -1.313957e+01 9 20 0
3.015916e+00 5.448043e-01 -1.298299e+01 4 7 2
2.588960e+00 3.308449e-01 -1.248679e+01 175 160 47
2.486334e+00 2.744772e-01 -1.226166e+01 147 131 33
2.301001e+00 6.525263e-01 -1.294650e+01 57 57 5
2.166953e+00 6.357830e-01 -1.286830e+01 193 187 97
7.620282e+00 1.874903e+01 -4.834749e+01 184 202 126
2.610286e+00 4.227275e-01 -1.261449e+01 112 99 3
2.840011e+00 3.726594e-01 -1.262657e+01 124 109 17
7.691215e+00 1.838576e+01 -4.834347e+01 82 98 23
2.477647e+00 7.419670e-01 -1.318471e+01 7 10 1
3.824509e+00 1.873663e+00 -1.607246e+01 171 160 55
1.208953e+00 2.020912e+01 -4.946747e+01 173 207 126
2.371433e+01 1.528647e+01 -4.360057e+01 162 152 98
1.019553e+01 1.984301e+01 -5.142953e+01 151 169 82
2.130762e+00 1.477089e+01 -4.128204e+01 163 173 79
-1.256920e-01 1.483838e+01 -4.338580e+01 162 159 116
-1.672805e+00 1.565284e+01 -4.513547e+01 2 9 0
-2.493199e+00 1.215181e+01 -3.746933e+01 117 126 103
-2.493199e+00 1.215181e+01 -3.746933e+01 117 126 103
-1.402315e+00 1.534782e+01 -4.612938e+01 150 159 127
-3.115472e+00 1.102151e+01 -3.740333e+01 70 91 33
-3.023922e+00 1.007452e+01 -3.668780e+01 78 96 52
-2.810424e+00 1.011761e+01 -3.816524e+01 4 13 0
3.365849e+00 1.950800e+01 -4.867622e+01 189 219 139
1.360176e+00 1.299728e+01 -3.697498e+01 56 67 0
1.360176e+00 1.299728e+01 -3.697498e+01 56 67 0
2.251815e+00 1.480885e+01 -4.173753e+01 123 129 25
-2.603939e+00 1.334528e+01 -3.765972e+01 84 85 9
-1.559026e+00 1.533469e+01 -4.383372e+01 64 70 21
-2.195295e+00 1.449643e+01 -4.266637e+01 18 32 0
-1.520440e+00 1.540688e+01 -4.591006e+01 8 21 0
-2.528480e+00 1.199873e+01 -3.754745e+01 7 19 1
-1.571239e+00 1.501867e+01 -4.586323e+01 1 8 0
-1.571239e+00 1.501867e+01 -4.586323e+01 1 8 0
-1.881920e+00 1.454535e+01 -4.654714e+01 156 166 109
-3.048652e+00 1.103317e+01 -3.787571e+01 13 31 0
-2.187283e+00 1.357265e+01 -4.192319e+01 159 182 130
-2.187283e+00 1.357265e+01 -4.192319e+01 159 182 130
-2.559481e+00 1.167137e+01 -3.735760e+01 157 170 126
9.093549e+00 4.180132e+00 -2.158901e+01 4 14 0
-2.921432e+00 1.007772e+01 -3.844783e+01 74 86 54
1.342553e+01 5.780457e+00 -2.556809e+01 236 254 244
-3.162999e+00 8.568456e+00 -3.726906e+01 87 107 54
5.353753e+00 1.200727e+00 -1.502285e+01 68 98 73
-1.466257e+00 1.545054e+01 -4.486322e+01 5 14 0
-1.947622e+00 1.477994e+01 -4.329027e+01 159 171 115
-2.264134e+00 1.710952e+01 -4.437630e+01 16 28 3
-9.237418e-01 1.572565e+01 -4.193999e+01 12 16 0
-1.921722e+00 1.342839e+01 -3.731153e+01 255 255 189
-2.836789e+00 9.797477e+00 -3.641811e+01 1 14 5
-3.112982e+00 9.503833e+00 -3.781533e+01 1 7 1
-2.213231e+00 1.414178e+01 -4.035151e+01 17 20 0
-2.400442e+00 1.314271e+01 -4.029278e+01 2 12 4
-4.149189e-01 1.437617e+00 -1.222375e+01 97 103 58
-1.135343e+00 4.441284e-02 -1.071809e+01 255 250 150
1.840954e+01 1.675869e+00 -3.066920e+01 72 103 68
3.656431e+00 -4.921366e-02 -1.200113e+01 123 97 10
2.964511e+00 -5.224819e-02 -1.174899e+01 141 110 27
3.506512e+00 -1.863548e-01 -1.169980e+01 132 103 9
-1.060315e+00 6.615031e-01 -1.200846e+01 207 176 59
2.870021e+00 -4.400507e-01 -1.097699e+01 196 163 56
3.394477e+00 5.122544e-03 -1.196342e+01 130 106 19
3.394477e+00 5.122544e-03 -1.196342e+01 130 106 19
3.593357e+00 -8.038845e-02 -1.199587e+01 190 165 66
3.593357e+00 -8.038845e-02 -1.199587e+01 190 165 66
3.304436e+00 -1.263220e-01 -1.166165e+01 116 85 3
3.269847e+00 -2.614487e-02 -1.188137e+01 204 181 86
2.513930e+00 -4.788186e-01 -1.067289e+01 195 158 51
2.662769e+01 7.807481e+00 -3.189271e+01 159 216 175
3.152943e+00 -8.472851e-02 -1.174860e+01 120 92 10
-4.738599e-01 -8.626503e-02 -9.088784e+00 18 28 1
-1.243339e+00 1.016850e-01 -1.083986e+01 235 210 91
-1.119215e+00 1.348631e+00 -1.438269e+01 156 152 63
-1.536543e+00 -8.399501e-03 -1.055271e+01 254 220 100
-1.503353e-01 -5.716557e-01 -9.420675e+00 142 138 67
-1.131298e+00 1.087044e+00 -1.239826e+01 239 217 97
-3.489280e-01 7.119488e-01 -9.009951e+00 84 49 0
-1.548998e+00 2.123998e-01 -1.097881e+01 228 198 68
-1.204179e+00 4.021754e-01 -1.146180e+01 253 223 89
-1.553398e+00 -2.864358e-01 -9.886383e+00 242 211 87
-4.166747e-01 8.606099e-01 -1.258317e+01 208 176 63
-1.248821e+00 7.147382e-01 -1.206992e+01 255 226 90
-8.613552e-01 5.595612e-01 -1.187952e+01 248 212 76
-1.455712e+00 5.925056e-01 -1.174772e+01 244 207 74
-1.336705e+00 2.681436e-01 -1.114135e+01 255 224 91
2.453185e-01 1.566015e+00 -1.208299e+01 87 82 45
-7.967700e-02 1.019145e+00 -1.226539e+01 154 147 76
-1.108183e+00 9.889652e-01 -1.274506e+01 245 213 78
3.173336e-01 -7.198337e-01 -9.555934e+00 201 194 106
7.975701e-01 -5.370456e-01 -1.001562e+01 230 222 131
-1.372529e+00 -1.474922e-01 -1.029518e+01 244 218 92
-9.031899e-01 5.094387e-01 -1.183508e+01 243 209 73
-1.235241e+00 3.956965e-01 -7.650473e+00 206 165 49
5.188232e-01 8.328177e-02 -9.807804e+00 241 232 144
-1.443625e-01 7.886639e-01 -8.966413e+00 128 106 29
-2.513883e-01 7.787178e-01 -8.999374e+00 126 80 7
-2.980906e-01 7.570973e-01 -8.991224e+00 133 79 10
2.294753e-01 1.736827e+00 -1.220201e+01 119 120 64
9.519679e-02 2.723537e+00 -1.655423e+01 133 123 44
-2.934372e-01 1.269590e+00 -1.206187e+01 32 31 10
-7.359405e-01 1.251358e+00 -1.329452e+01 254 222 93
2.457836e+00 -1.397302e-01 -1.137566e+01 197 159 58
-4.162926e-01 1.318781e-01 -9.212174e+00 25 31 4
2.347546e+00 -4.091000e-01 -1.074333e+01 189 159 47
-1.033755e+00 1.899855e-01 -1.099817e+01 191 167 45
-1.449621e+00 -1.258108e-01 -1.029133e+01 252 218 92
-1.488140e+00 -1.790062e-01 -1.018789e+01 249 215 92
-2.221206e-01 7.782491e-01 -8.985704e+00 95 59 0
2.519969e-01 1.684431e+00 -1.221242e+01 129 126 78
1.152146e-01 2.754831e+00 -1.650217e+01 241 230 142
6.075998e+00 1.120777e-01 -1.623336e+01 124 99 16
3.028814e+00 -6.570808e-02 -1.190031e+01 187 156 58
2.804410e+00 -9.192818e-02 -1.169288e+01 186 152 44
-1.048345e-03 5.325682e-01 -1.205513e+01 163 129 17
1.957397e+00 -3.569113e-01 -1.077361e+01 237 217 123
-1.491630e+00 -1.650636e-01 -1.021183e+01 232 198 75
-1.537868e+00 -2.888778e-01 -9.941794e+00 241 216 91
-4.131430e-01 8.065874e-01 -9.097515e+00 238 153 7
-5.163799e-01 6.203212e-01 -9.103983e+00 187 104 3
-5.866093e-01 5.637312e-01 -9.263078e+00 170 98 0
4.235967e-02 1.062548e+00 -1.220012e+01 65 62 3
4.235967e-02 1.062548e+00 -1.220012e+01 65 62 3
8.965998e-02 9.813492e-01 -1.224911e+01 66 67 5
9.667847e-02 9.829336e-01 -1.226937e+01 66 67 5
-9.869574e-01 3.394499e-01 -8.854508e+00 29 21 2
-3.123664e-01 6.693950e-01 -1.228918e+01 144 114 0
4.343225e-01 -2.044588e-01 -9.871457e+00 4 2 0
-1.057375e+00 1.558394e-01 -1.098703e+01 194 171 48
-5.699442e-01 5.293713e-01 -9.178733e+00 164 90 0
-5.959641e-01 4.493864e-01 -9.144252e+00 42 47 7
-9.674671e-01 1.086484e+00 -1.290233e+01 246 215 91
-2.273846e-01 4.289709e-01 -1.179054e+01 212 173 37
2.222169e+00 -3.514629e-01 -1.081653e+01 207 180 67
-1.206106e+00 3.583995e-01 -1.138403e+01 214 183 56
-4.451051e-01 -3.531596e-01 -9.138429e+00 49 55 17
-7.189100e-01 -6.877368e-01 -9.361000e+00 163 155 82
-5.321013e-01 5.986741e-01 -9.126530e+00 174 94 0
-7.229171e-03 1.038227e+00 -1.225446e+01 54 61 15
2.814335e+00 -3.777329e-01 -1.120310e+01 211 181 69
-1.128584e+00 4.930302e-01 -1.165263e+01 252 222 92
-1.360673e+00 3.247089e-01 -1.114730e+01 247 214 88
-1.227984e+00 6.675491e-02 -1.072095e+01 244 215 88
-1.273876e+00 8.585408e-03 -1.064336e+01 243 214 84
-5.696423e-01 5.001454e-01 -9.174104e+00 168 103 12
-4.441350e-02 1.109871e+00 -1.224443e+01 147 143 70
-4.441350e-02 1.109871e+00 -1.224443e+01 147 143 70
-4.220406e-01 3.349004e-01 -9.160814e+00 4 6 0
-1.220555e+00 1.732007e-02 -1.062617e+01 232 202 84
3.383706e-01 -7.210745e-01 -9.504882e+00 200 194 106
-7.648177e-01 -4.841092e-01 -9.746789e+00 218 209 112
-7.300007e-01 -6.701494e-01 -9.423034e+00 166 159 79
-6.130062e-01 5.307908e-01 -9.423531e+00 162 157 76
-3.756948e-01 3.090998e-01 -9.166020e+00 64 62 10
-5.474218e-01 3.018134e-01 -9.168796e+00 18 31 1
-1.162158e+00 7.820362e-02 -1.079149e+01 225 199 75
-6.438358e-01 -1.979860e-01 -9.488663e+00 61 70 27
-5.185001e-01 -2.354812e-01 -9.100547e+00 35 46 17
-4.476600e-01 8.093445e-01 -9.137719e+00 195 103 2
-6.083951e-01 -3.842894e-01 -9.136526e+00 36 47 17
-4.364082e-02 9.523152e-01 -1.232747e+01 153 146 66
-3.318938e-01 6.559860e-01 -1.234530e+01 168 131 13
-4.393923e-01 4.051916e-01 -9.184256e+00 9 18 0
2.283709e-01 -7.704030e-01 -9.386408e+00 200 194 106
-5.509719e-01 5.939069e-01 -9.272545e+00 186 107 2
-5.391906e-01 4.438674e-01 -9.140977e+00 27 31 7
-1.775611e-01 7.770276e-01 -1.220238e+01 25 18 1
-2.379417e-01 9.601033e-01 -1.221885e+01 30 29 0
-5.309061e-01 5.575277e-01 -9.112739e+00 176 100 6
7.656430e+00 8.121503e+00 -2.801824e+01 53 60 8
5.739556e+00 6.354367e+00 -2.471084e+01 54 59 41
-7.856294e-02 1.261397e+00 -1.210905e+01 13 17 0
-7.856294e-02 1.261397e+00 -1.210905e+01 13 17 0
5.296763e-01 9.072431e-01 -1.214625e+01 91 89 12
5.324932e-01 9.071360e-01 -1.215110e+01 91 89 12
3.221225e+00 -5.007150e-01 -1.096490e+01 202 173 56
-1.258207e-01 4.396751e-01 -1.183019e+01 183 146 6
-7.895448e-01 4.493012e-01 -1.166495e+01 236 215 90
-9.172433e-01 3.067322e-01 -1.131611e+01 215 186 66
-1.484803e+00 -1.045138e-01 -1.032905e+01 198 166 47
-6.046815e-01 3.470164e-01 -9.182049e+00 25 42 9
-1.469289e+00 -1.327799e-01 -1.028409e+01 228 201 70
-5.782275e-01 4.655630e-01 -9.206192e+00 36 44 5
4.108628e-01 9.385631e-01 -1.218835e+01 92 90 16
3.158435e+00 -5.029256e-01 -1.096546e+01 185 155 40
2.487787e+00 -7.315409e-01 -1.031663e+01 191 170 53
2.516546e-01 9.818478e-01 -1.220645e+01 113 113 41
5.098959e-01 9.093310e-01 -1.215963e+01 90 88 11
5.098959e-01 9.093310e-01 -1.215963e+01 90 88 11
-7.059690e-02 9.259595e-01 -1.239481e+01 140 140 72
-8.763777e-02 9.221406e-01 -1.234921e+01 140 140 72
1.828341e-01 6.427475e-01 -1.234693e+01 107 87 21
1.942555e-01 5.439383e-01 -1.215377e+01 124 97 0
-1.441225e+00 -1.267814e-01 -1.031297e+01 246 222 88
3.415350e-01 1.718935e+00 -1.227921e+01 4 6 0
3.413431e-01 1.589462e+00 -1.211744e+01 3 3 9
-5.143787e-01 5.060014e-01 -9.105346e+00 101 43 1
4.486143e-01 8.720517e-01 -1.217589e+01 140 138 61
4.206048e+00 -3.386738e-01 -1.164209e+01 96 84 2
3.985128e-01 5.583169e-01 -1.224400e+01 94 74 4
-1.491261e+00 9.418969e-02 -1.073991e+01 197 173 46
-5.921548e-01 4.859745e-01 -9.208788e+00 39 30 0
1.056144e-01 1.070960e+00 -1.219569e+01 150 153 81
2.164030e-01 1.044613e+00 -1.218618e+01 153 155 77
1.507604e-01 1.006634e+00 -1.221916e+01 43 53 7
1.507604e-01 1.006634e+00 -1.221916e+01 43 53 7
-8.264318e-01 3.838944e-01 -1.149649e+01 163 136 18
-6.235935e-01 -2.261935e-01 -9.154351e+00 19 32 1
-6.138104e-01 -2.732414e-01 -9.157457e+00 24 38 5
-1.549719e+00 -1.003953e-01 -1.034727e+01 237 209 86
-4.486896e-02 5.681474e-01 -1.214928e+01 155 126 7
2.403428e-02 9.954148e-01 -1.227622e+01 149 159 96
2.096230e+01 3.216848e+00 -3.038294e+01 150 151 47
2.535147e+01 1.638171e+01 -4.510556e+01 146 96 53
2.020534e+01 2.574405e+00 -2.907903e+01 162 129 0
2.489992e+01 1.606907e+01 -4.562260e+01 175 147 97
2.538626e+01 1.595544e+01 -4.563443e+01 129 102 51
2.377122e+01 1.667986e+01 -4.534187e+01 173 157 98
2.713045e+01 1.652072e+01 -4.587021e+01 168 145 95
2.713045e+01 1.652072e+01 -4.587021e+01 168 145 95
2.713045e+01 1.652072e+01 -4.587021e+01 168 145 95
2.445882e+01 1.611178e+01 -4.588984e+01 146 121 64
-3.003623e-01 6.419743e-01 -8.395330e+00 149 159 95
1.999394e+01 2.653895e+00 -2.910726e+01 193 170 22
2.698875e+01 1.547489e+01 -4.487202e+01 158 151 113
-5.741535e-01 4.755877e-01 -9.176239e+00 55 33 0
2.342675e-01 -1.196483e-01 -8.493876e+00 189 164 56
2.505363e+01 2.261639e+00 -3.119223e+01 193 180 27
1.598183e+01 5.069102e-01 -1.950938e+01 127 135 87
3.145905e-01 9.623945e-01 -1.218390e+01 108 104 33
-6.008443e-01 3.335897e-01 -9.187030e+00 23 37 1
3.339393e+00 -4.420637e-01 -1.115691e+01 201 171 57
2.326451e+00 -5.588255e-01 -1.058154e+01 183 151 38
2.534556e+00 -7.156099e-01 -1.031419e+01 191 169 52
5.343317e-02 1.065044e+00 -1.220096e+01 54 62 2
4.566812e-01 9.211032e-01 -1.215134e+01 88 86 11
4.667623e-01 8.945392e-01 -1.216523e+01 134 132 55
4.780721e+00 -2.174384e-01 -1.213216e+01 186 171 80
4.614052e+00 -2.193633e-01 -1.219730e+01 115 96 3
-7.488411e-01 4.803155e-01 -9.933422e+00 21 19 3
3.582818e+00 -3.285326e-01 -1.154040e+01 195 168 53
-3.114494e-01 7.027773e-01 -1.253256e+01 151 123 0
-4.726745e-02 5.074917e-01 -1.200364e+01 156 125 0
3.464153e+00 -6.663749e-01 -1.094404e+01 172 147 28
1.491555e-01 -4.761267e-01 -8.570183e+00 214 213 119
-5.511206e-01 4.459686e-01 -9.136320e+00 27 32 8
3.197794e+00 -2.393827e-01 -1.115588e+01 177 152 51
-4.626516e-01 7.329590e-01 -1.245084e+01 172 139 24
-6.648532e-01 -4.824035e-01 -9.740452e+00 126 124 51
3.972980e+00 -2.884424e-01 -1.160589e+01 119 107 20
2.974647e-01 1.678959e+00 -1.216340e+01 4 6 0
3.653095e-01 1.735680e+00 -1.233559e+01 4 6 0
1.600822e+01 4.535238e-01 -1.920660e+01 27 33 1
2.321011e+01 1.724134e+00 -2.943879e+01 134 121 1
-3.519222e-01 1.455385e+00 -1.250313e+01 26 27 0
5.826416e-01 8.720932e-01 -1.232069e+01 138 136 59
4.481272e+00 -2.918034e-01 -1.182073e+01 185 173 87
2.415391e-02 5.796264e-01 -1.211769e+01 116 90 0
1.229814e-01 5.266638e-01 -1.225897e+01 166 136 9
-6.919739e-01 -4.025669e-01 -9.292381e+00 26 42 5
-3.180414e-01 7.854388e-01 -8.961637e+00 224 166 22
1.326254e-01 1.402994e+00 -1.203525e+01 74 83 38
1.599013e+01 6.466589e-01 -1.942914e+01 145 159 100
4.155159e+00 -3.971619e-01 -1.166946e+01 203 179 70
-1.059757e-01 5.281344e-01 -1.197133e+01 172 142 9
-4.985080e-01 1.061289e-01 -9.320609e+00 14 27 1
2.038235e+00 -6.852330e-01 -1.040808e+01 205 179 58
-2.124470e-01 9.112824e-01 -1.255877e+01 23 22 1
5.581674e-01 -4.124936e-01 -9.550242e+00 225 226 133
-4.126643e-01 9.914828e-01 -1.093419e+01 15 18 0
-2.058732e-01 7.726846e-01 -9.022830e+00 103 70 0
2.961241e-01 1.737760e+00 -1.229956e+01 113 113 67
9.982924e-01 1.500215e+00 -1.203846e+01 108 115 72
-5.103429e-01 5.513569e-01 -9.074867e+00 141 74 9
-3.026562e-02 1.232894e+00 -1.211415e+01 27 31 8
-5.722342e-02 1.239636e+00 -1.211895e+01 28 31 10
6.018873e-01 7.340106e-01 -1.197435e+01 131 126 33
3.327406e+00 -4.325618e-01 -1.116015e+01 207 166 53
6.650237e-01 5.457199e-01 -1.186837e+01 161 144 65
5.230438e-01 6.007614e-01 -1.198928e+01 94 79 2
-6.179375e-01 3.518721e-01 -9.194829e+00 27 37 12
5.771394e-01 5.148218e-01 -1.185082e+01 142 132 35
5.814414e-01 4.861270e-01 -1.184109e+01 133 123 4
3.060435e+00 -5.121901e-01 -1.092128e+01 224 184 73
5.900463e-01 4.608134e-01 -1.180445e+01 177 140 37
3.772811e+00 -9.238588e-01 -1.024370e+01 75 58 4
3.701278e-01 5.925979e-01 -1.222866e+01 75 56 20
4.306810e-01 5.504794e-01 -1.223254e+01 79 52 0
5.535181e-01 3.744987e-01 -1.186236e+01 172 126 32
-3.414023e-01 7.159063e-01 -1.216123e+01 116 92 0
4.330297e-01 3.767163e-01 -1.186377e+01 127 77 2
4.707279e-01 3.739648e-01 -1.192073e+01 127 77 2
4.161584e-01 4.266035e-01 -1.211719e+01 130 90 0
3.473590e+00 -9.732997e-01 -1.042060e+01 182 145 31
-5.582842e-01 6.614477e-01 -1.217402e+01 188 148 17
-6.334464e-01 2.408223e-01 -9.520944e+00 27 38 8
-3.098781e-01 3.695225e-01 -1.167858e+01 189 163 45
-7.230260e-01 2.160545e-01 -9.488213e+00 43 50 16
-4.297458e-01 4.055925e-01 -1.164071e+01 182 154 35
-6.764028e-01 5.159927e-01 -1.180798e+01 206 165 37
-7.500873e-01 4.949255e-01 -1.172008e+01 188 149 20
-1.080233e+00 1.680055e-01 -1.096884e+01 219 189 65
1.787622e+01 1.667334e-01 -1.941376e+01 155 151 90
8.594750e-01 1.142821e+00 -1.176053e+01 30 33 2
-5.707267e-01 6.261475e-01 -9.342688e+00 185 97 9
4.559107e+00 -2.284921e-01 -1.142738e+01 161 152 75
6.548206e+00 -6.815808e-01 -1.216384e+01 164 157 91
4.219655e+00 -3.396265e-01 -1.106924e+01 52 47 7
4.274392e+00 -3.472179e-01 -1.109669e+01 52 47 7
1.692091e+00 5.121985e-01 -1.258216e+01 185 175 102
6.587117e-01 6.347697e-01 -1.188213e+01 87 75 0
5.165991e-01 6.191431e-01 -1.192657e+01 123 105 8
5.267859e-01 6.274372e-01 -1.199577e+01 190 179 100
5.722352e-01 5.388523e-01 -1.184087e+01 89 74 1
5.681237e-01 5.395515e-01 -1.183474e+01 89 74 1
4.732367e-01 5.478137e-01 -1.181105e+01 119 105 0
1.268738e+00 3.739886e-01 -1.222656e+01 116 101 25
5.403798e-01 5.001781e-01 -1.184456e+01 124 109 1
4.125776e-01 4.613167e-01 -1.196937e+01 188 142 54
4.125776e-01 4.613167e-01 -1.196937e+01 188 142 54
4.911635e-01 4.071992e-01 -1.188129e+01 123 75 0
4.287110e-01 4.029714e-01 -1.187626e+01 161 114 24
4.287110e-01 4.029714e-01 -1.187626e+01 161 114 24
-4.194256e-01 7.886829e-01 -1.249767e+01 153 112 0
3.503668e-01 4.130356e-01 -1.193792e+01 154 107 7
2.591249e+00 -7.376096e-01 -1.029580e+01 164 126 15
-8.146840e-02 4.259019e-01 -1.182320e+01 164 123 0
-6.394542e-01 5.880106e-01 -1.196930e+01 185 141 6
-6.394542e-01 5.880106e-01 -1.196930e+01 185 141 6
-6.377714e-01 5.671206e-01 -1.191115e+01 213 168 40
-6.299101e-01 5.142967e-01 -1.180605e+01 182 139 9
-5.429405e-01 4.898406e-01 -1.185352e+01 200 157 27
-6.535504e-01 1.622542e-01 -9.522168e+00 27 37 3
-4.169335e-01 -9.919601e-03 -9.020524e+00 36 47 16
-7.732642e-01 4.559696e-01 -1.164193e+01 153 114 0
-7.655998e-01 4.450568e-01 -1.160712e+01 229 195 77
-6.144317e-01 5.432490e-02 -9.674365e+00 38 44 17
1.550061e+00 -9.821995e-01 -9.358013e+00 190 174 91
-1.101879e+00 1.273953e-01 -1.085703e+01 239 212 93
-6.775083e-01 -4.716389e-01 -9.740499e+00 117 115 48
-2.873436e-01 7.763573e-01 -8.996933e+00 163 105 0
-4.237035e-01 7.885528e-01 -9.129411e+00 227 140 23
-4.250041e-01 7.885905e-01 -9.126888e+00 227 140 23
9.174606e-01 1.493723e+00 -1.204115e+01 69 74 42
-1.090162e-01 5.661079e-01 -8.955607e+00 41 50 7
4.398747e+00 -2.566236e-01 -1.131183e+01 69 59 0
8.055590e-01 8.361248e-01 -1.208312e+01 121 115 37
5.007637e-01 6.048820e-01 -1.184527e+01 182 165 58
-6.302528e-01 3.792782e-01 -9.240131e+00 6 15 0
4.653666e-01 5.480086e-01 -1.189736e+01 117 109 0
4.428210e-01 4.833289e-01 -1.195875e+01 145 95 1
8.940968e-01 2.972067e-01 -1.187554e+01 157 123 14
7.298082e-01 2.417822e-01 -1.172971e+01 181 139 19
2.405838e+00 -5.863091e-01 -1.050652e+01 208 170 59
-5.375715e-01 6.719315e-01 -1.215680e+01 199 160 29
1.757606e+00 -7.929893e-01 -9.863659e+00 198 166 55
1.061185e+00 1.587286e+00 -1.207008e+01 56 63 15
9.835407e-01 1.455389e+00 -1.201353e+01 4 4 0
-5.980517e-01 5.583030e-01 -9.237265e+00 168 91 0
7.036022e-01 8.569143e-01 -1.210234e+01 111 107 33
4.450645e-01 8.212441e-01 -1.224602e+01 118 104 29
5.610664e-01 6.667990e-01 -1.180434e+01 232 224 115
5.610664e-01 6.667990e-01 -1.180434e+01 232 224 115
5.174870e-01 6.745714e-01 -1.200954e+01 19 12 0
5.402230e-01 6.297366e-01 -1.182905e+01 89 75 0
-6.550805e-01 4.043468e-01 -9.296437e+00 16 26 0
3.750619e-01 6.097049e-01 -1.242363e+01 114 86 22
6.611416e-01 2.311553e-01 -1.169940e+01 171 128 0
-6.786075e-01 5.469917e-01 -1.185498e+01 165 120 0
-7.246614e-01 5.313373e-01 -1.182251e+01 214 174 43
-5.331473e-01 -1.554999e-01 -9.105793e+00 21 30 3
-1.363643e+00 7.465481e-02 -1.059512e+01 245 221 89
-5.537222e-01 -3.416736e-01 -9.071459e+00 176 180 116
2.187418e-01 -9.113722e-01 -9.181565e+00 214 209 118
-7.148146e-01 -4.523063e-01 -9.242360e+00 32 43 13
1.723586e+01 1.784153e+00 -1.759910e+01 167 163 96
-3.297910e-01 7.837679e-01 -9.018784e+00 149 74 0
9.679587e-01 1.559867e+00 -1.211431e+01 2 3 0
1.009302e+00 1.573928e+00 -1.217496e+01 2 3 0
9.267610e-01 1.563353e+00 -1.216681e+01 116 122 75
1.419783e-01 1.400673e+00 -1.205513e+01 61 68 25
9.243678e-01 9.986368e-01 -1.190595e+01 10 10 0
-5.634541e-01 5.298365e-01 -9.180690e+00 158 82 0
-5.715013e-01 4.139963e-01 -9.196047e+00 18 28 1
6.858335e-01 6.763763e-01 -1.189653e+01 82 71 0
7.123385e-01 4.668018e-01 -1.190653e+01 153 118 32
4.645446e-01 4.298684e-01 -1.185334e+01 133 84 0
1.173609e-01 5.583408e-01 -1.213164e+01 125 94 1
5.388121e-02 5.852703e-01 -1.220735e+01 121 87 0
-4.538543e-01 7.012596e-01 -1.223461e+01 158 121 6
2.442283e+00 -8.498189e-01 -9.987581e+00 189 159 45
2.009668e+00 -7.207910e-01 -1.008054e+01 213 177 65
-8.364610e-01 4.216426e-01 -1.158918e+01 220 186 54
-9.107801e-01 3.042332e-01 -1.128360e+01 154 120 6
-6.368428e-01 3.052343e-02 -9.666374e+00 60 68 29
-4.183005e-01 -1.208312e-01 -9.086764e+00 43 51 20
-7.446548e-01 -4.090243e-01 -9.856152e+00 199 196 101
4.495388e-01 1.692810e+00 -1.228815e+01 128 132 76
8.551294e-01 1.475300e+00 -1.205404e+01 3 1 11
8.444721e-01 1.401971e+00 -1.192775e+01 74 79 37
1.052926e-01 1.538996e+00 -1.205039e+01 128 131 81
1.052926e-01 1.538996e+00 -1.205039e+01 128 131 81
8.126502e-01 1.162973e+00 -1.190250e+01 24 27 0
-5.735359e-01 6.083192e-01 -9.250155e+00 171 90 0
3.989467e-01 8.619805e-01 -1.209668e+01 147 137 60
-6.512052e-01 3.614264e-01 -9.401109e+00 43 53 16
-5.345461e-01 2.618790e-01 -9.146343e+00 15 30 1
7.986315e-01 3.783091e-01 -1.201185e+01 114 76 0
8.492194e-01 2.990908e-01 -1.197144e+01 169 128 17
-6.308132e-01 3.099648e-01 -9.453945e+00 48 58 21
-9.801354e-02 6.303015e-01 -1.227934e+01 121 86 0
-3.159787e-01 6.644793e-01 -1.216397e+01 137 105 0
-6.416401e-02 5.323231e-01 -1.206674e+01 184 145 14
2.621641e+00 -8.318990e-01 -1.016585e+01 185 151 41
-1.049783e+00 2.342297e-01 -1.111091e+01 232 201 69
-6.612814e-01 -1.854400e-01 -9.736948e+00 63 73 30
1.884391e-01 -8.890484e-01 -9.256816e+00 204 199 108
9.001440e-01 1.359956e+00 -1.187493e+01 4 8 1
8.145466e-01 1.325357e+00 -1.197173e+01 0 2 0
8.253971e-01 1.331168e+00 -1.198350e+01 0 2 0
8.478327e-01 1.236970e+00 -1.188983e+01 75 81 37
-3.746218e-01 5.765550e-01 -9.082176e+00 61 34 7
-5.914746e-01 4.851785e-01 -9.210784e+00 35 26 0
5.531343e-01 6.900662e-01 -1.186515e+01 228 221 107
-5.668308e-01 3.040992e-01 -9.142083e+00 16 26 1
4.201374e-01 4.834219e-01 -1.208847e+01 85 53 5
7.422639e-01 3.042255e-01 -1.182047e+01 170 128 16
-9.847907e-02 5.348731e-01 -1.202144e+01 183 144 13
-6.541226e-01 4.343331e-02 -9.592591e+00 0 2 0
-6.068785e-01 -4.034750e-02 -1.072048e+01 236 235 142
-5.113980e-01 -1.795935e-01 -9.270716e+00 0 7 0
-5.629137e-01 -2.205950e-01 -9.115688e+00 10 21 0
-5.821122e-01 -2.745135e-01 -9.099006e+00 30 43 13
-6.161564e-01 5.013717e-01 -9.259644e+00 27 28 6
-5.150807e-01 3.405445e-01 -9.134393e+00 33 47 11
-6.046728e-01 3.816591e-01 -9.224572e+00 6 15 0
5.606144e-01 3.713914e-01 -1.180696e+01 152 105 17
1.341611e-01 2.822676e-01 -1.147416e+01 160 117 0
-6.936521e-02 3.484822e-01 -1.166971e+01 178 143 10
-3.043924e-01 4.232489e-01 -1.180123e+01 174 131 1
-7.527866e-01 1.486978e-01 -9.252258e+00 30 40 3
1.425584e+00 -9.494695e-01 -9.429798e+00 193 167 58
2.121058e-01 4.496038e-01 -1.196294e+01 182 145 15
-6.543691e-01 5.274803e-01 -1.183303e+01 183 140 10
1.851326e+00 -7.562568e-01 -1.008287e+01 202 166 54
-6.625014e-01 1.476036e-01 -1.102100e+01 241 241 151
-7.107623e-01 -5.124107e-02 -9.458338e+00 46 57 17
-5.795178e-01 -3.154208e-01 -9.384959e+00 0 7 0
-5.795178e-01 -3.154208e-01 -9.384959e+00 0 7 0
-6.238353e-01 -3.616850e-01 -9.496277e+00 37 48 16
-4.603975e-01 6.900581e-01 -9.139569e+00 215 128 0
4.726804e-01 6.448377e-01 -1.222039e+01 12 9 3
7.384318e-01 7.814796e-01 -1.206371e+01 135 129 45
2.827242e-01 9.437170e-01 -1.223977e+01 156 148 73
3.817022e-02 6.886233e-01 -1.237875e+01 87 73 21
9.699220e-01 1.518721e+00 -1.211806e+01 83 91 52
-5.845039e-03 1.008563e+00 -1.225336e+01 34 47 2
4.777289e-01 5.457353e-01 -1.181453e+01 102 99 0
3.286507e-02 8.135110e-01 -1.272984e+01 19 20 3
1.585373e+01 2.703145e-01 -1.984173e+01 36 31 0
1.754035e+01 2.006816e-01 -1.939465e+01 20 26 0
3.741868e-02 1.061660e+00 -1.222695e+01 35 46 0
4.920132e-01 5.063365e-01 -1.184364e+01 143 109 12
2.359763e+00 -7.388550e-01 -1.023851e+01 212 172 69
9.260373e-01 2.424743e-01 -1.182602e+01 186 153 65
4.253412e-01 4.395341e-01 -1.203494e+01 117 68 2
2.173863e-01 2.096720e-01 -1.146132e+01 175 134 28
9.124535e+00 -3.817801e+00 -1.159063e+01 192 162 41
1.336799e-01 -2.097121e-01 -1.072721e+01 81 81 32
1.639009e-01 -6.777901e-01 -9.582064e+00 192 186 117
6.568515e-02 1.068019e+00 -1.222176e+01 55 54 1
4.929134e-01 4.063206e-01 -1.188325e+01 116 64 0
-2.752674e-01 3.905036e-01 -1.170098e+01 215 174 58
9.308693e-01 8.015562e-01 -1.209582e+01 123 112 46
3.837830e+00 -8.237410e-01 -9.925828e+00 158 153 95
5.804847e-01 3.206097e-02 -9.711354e+00 28 33 10
-4.178242e-01 8.063641e-01 -9.135195e+00 186 98 0
2.485049e-01 9.820643e-01 -1.220212e+01 116 106 44
3.505000e+00 -9.362998e-01 -9.665987e+00 168 157 103
2.973587e-01 1.744679e+00 -1.236662e+01 133 131 76
-2.689979e-03 1.039379e+00 -1.226341e+01 50 56 20
3.580484e+00 -1.080449e+00 -9.923953e+00 82 52 0
1.419474e+00 -9.473584e-01 -9.432188e+00 201 166 61
-5.451927e-01 5.871884e-01 -9.143988e+00 171 88 0
3.956138e+01 1.562528e+01 -4.913153e+01 147 216 192
5.183633e-01 9.316553e-01 -1.214596e+01 141 139 62
2.191306e+01 4.914218e+00 -2.480191e+01 145 165 106
-3.496213e-01 7.989558e-01 -1.059054e+01 21 25 0
3.750706e+01 1.430268e+01 -4.473684e+01 120 168 117
1.576490e+01 7.441361e+00 -2.886660e+01 70 90 77
1.497200e+01 7.416870e+00 -2.865463e+01 15 37 24
1.723103e+01 1.874791e+00 -1.775568e+01 93 71 10
6.048672e+00 1.688150e+00 -1.644283e+01 130 115 39
5.307141e-01 5.999612e-01 -1.199881e+01 94 79 2
2.861728e-02 5.331466e-01 -1.212958e+01 168 129 12
-5.822736e-01 3.487522e-01 -9.175892e+00 13 23 0
5.036639e-01 4.838562e-01 -1.183328e+01 175 140 34
5.036639e-01 4.838562e-01 -1.183328e+01 175 140 34
5.524629e-01 4.142628e-01 -1.185365e+01 118 76 0
-6.751860e-01 -2.851566e-01 -9.679373e+00 45 57 19
3.385415e-01 6.827118e-01 -1.243673e+01 17 18 0
3.958125e-01 1.143524e+00 -1.182547e+01 36 41 9
-6.272973e-01 4.185280e-01 -9.363045e+00 21 32 1
1.715475e+01 1.979949e+00 -1.773713e+01 101 73 10
1.194218e+00 9.419147e-01 -1.179989e+01 12 14 0
-1.353424e+00 -1.216689e-03 -1.048259e+01 232 205 72
-1.288908e+00 2.444429e-02 -1.057384e+01 239 213 80
-1.246566e+00 1.181873e-01 -1.077757e+01 231 203 72
1.714624e+01 3.431515e+00 -1.594113e+01 120 110 41
6.835503e-01 -4.269845e-02 -8.714246e+00 162 145 81
4.720324e-01 8.418401e-01 -1.222331e+01 158 139 71
3.339736e+00 -1.056319e+00 -9.663744e+00 29 15 0
5.796302e-01 4.337662e-01 -1.186340e+01 157 102 19
4.473096e-01 4.667315e-01 -1.189765e+01 159 100 6
1.308258e-01 7.201284e-01 -1.243994e+01 22 16 6
4.489382e-01 4.327248e-01 -1.195908e+01 129 78 0
4.464614e-01 4.330496e-01 -1.195811e+01 129 78 0
4.126445e-01 4.420214e-01 -1.207915e+01 123 78 2
-6.513976e-01 4.116009e-03 -9.561489e+00 17 24 0
4.163337e-01 5.462296e-01 -1.207115e+01 72 51 21
-6.417943e-01 -1.744002e-02 -9.543889e+00 43 51 12
-5.866803e-01 -2.914313e-01 -9.401976e+00 9 18 2
-7.758304e-01 -1.975602e-01 -1.040426e+01 244 237 149
-7.182634e-01 -4.543845e-01 -9.496355e+00 33 32 7
6.309309e-02 9.749138e-01 -1.221247e+01 66 65 8
-6.331298e-01 -2.138083e-01 -9.637454e+00 32 43 5
-5.513415e-01 4.196649e-01 -1.167628e+01 254 240 139
-6.351782e-01 -2.312463e-01 -9.668678e+00 43 53 16
-8.039529e-01 2.581583e-01 -8.432904e+00 161 151 80
-6.321733e-02 -1.631043e-01 -1.086781e+01 248 236 146
9.128185e-01 8.424076e-01 -1.204735e+01 151 140 77
9.128185e-01 8.424076e-01 -1.204735e+01 151 140 77
5.967324e+00 1.648463e+00 -1.616128e+01 121 101 15
5.955335e+00 1.679875e+00 -1.624691e+01 155 134 53
5.873643e+00 1.313923e+00 -1.546979e+01 186 164 55
2.298361e+00 5.063764e-01 -1.272717e+01 140 122 19
3.531625e+00 -9.554652e-01 -9.668019e+00 160 158 102
8.713534e-01 8.226624e-01 -1.208621e+01 123 116 41
1.675744e+00 3.507767e-01 -1.229391e+01 188 156 47
1.112985e+00 3.206775e-01 -1.186963e+01 165 139 38
4.626538e-01 3.707035e-01 -1.191414e+01 129 79 0
1.964323e-01 2.215755e-01 -1.151634e+01 158 128 1
3.358481e-02 3.080714e-01 -1.163253e+01 205 169 31
-1.036026e+00 1.821565e-01 -1.099504e+01 238 220 99
-6.262629e-01 -4.469154e-01 -9.866522e+00 105 112 49
1.747913e+01 3.017085e-01 -1.964351e+01 35 31 2
1.783752e+01 -2.725567e-01 -1.996437e+01 40 21 0
6.010029e+00 1.548638e+00 -1.599317e+01 201 184 96
5.608228e+00 1.401237e+00 -1.559511e+01 187 170 89
5.742329e+00 1.227243e+00 -1.541844e+01 116 98 7
1.058474e+01 -1.879896e+00 -1.202289e+01 70 68 11
-4.005694e-01 8.144317e-01 -9.123198e+00 239 159 7
1.105257e+01 -3.404012e+00 -1.263906e+01 32 29 0
3.546247e+00 -1.198040e+00 -9.751038e+00 93 66 0
5.308520e-01 6.634429e-01 -1.182193e+01 234 231 115
1.260787e+00 3.710857e-01 -1.221824e+01 114 94 7
4.659587e-01 5.284723e-01 -1.187137e+01 134 114 0
3.919195e-01 5.745181e-01 -1.232648e+01 94 65 0
3.910881e-01 4.336422e-01 -1.203172e+01 139 95 5
4.116058e-01 3.818223e-01 -1.192610e+01 162 108 7
3.536506e-01 3.723572e-01 -1.191930e+01 168 121 5
-2.009117e-02 4.299519e-01 -1.204149e+01 190 148 14
-5.438791e-02 4.204202e-01 -1.187335e+01 167 125 1
-8.739350e-02 4.095725e-01 -1.184750e+01 202 160 26
-1.369501e-01 4.392591e-01 -1.188385e+01 189 149 15
-1.782454e-01 3.612586e-01 -1.173142e+01 212 175 43
-6.437590e-01 -2.430163e-01 -9.669390e+00 43 58 19
-1.542023e+00 1.203291e-01 -1.060528e+01 247 226 85
1.059613e+01 -3.015976e+00 -1.277230e+01 42 37 0
-2.250104e-02 5.055170e-01 -1.206168e+01 172 130 0
1.794579e+00 -1.021698e+00 -9.518437e+00 203 162 38
1.731307e+01 4.015838e-01 -1.940977e+01 156 157 97
1.113460e+01 -2.118230e+00 -1.218183e+01 56 58 8
-4.678624e-01 8.532009e-01 -9.182604e+00 223 148 1
1.097652e+01 -3.020904e+00 -1.290152e+01 143 134 76
4.018135e-01 3.518618e-01 -1.186743e+01 171 118 10
2.920776e-01 3.047858e-01 -1.174440e+01 169 122 4
-6.498781e-01 -1.937931e-02 -9.495987e+00 41 53 15
-6.133660e-01 -5.544038e-01 -9.654078e+00 115 113 54
1.289524e+00 1.077901e+00 -1.178088e+01 30 35 3
1.116074e+01 -2.584108e+00 -1.241744e+01 62 61 6
1.002981e+01 -2.780290e+00 -1.187722e+01 35 43 2
1.356078e+00 6.138882e-01 -1.203485e+01 195 176 77
5.689003e-01 6.666125e-01 -1.182167e+01 231 225 115
8.720659e-01 2.408675e-01 -1.185466e+01 172 135 15
-4.358202e-01 7.685742e-01 -9.115920e+00 179 100 0
-4.647498e-01 7.601626e-01 -9.134486e+00 227 145 9
3.479877e+00 -1.043342e+00 -9.737766e+00 126 110 34
-1.073792e+00 1.585422e-01 -1.093758e+01 189 167 38
-6.364038e-01 7.460088e-02 -9.540431e+00 50 63 20
-4.762977e-01 -3.767393e-02 -1.084204e+01 246 248 151
-2.871260e-01 6.117760e-02 -1.102895e+01 239 241 144
-6.054914e-01 -4.350405e-02 -1.072628e+01 233 237 142
-4.405225e-01 8.190105e-01 -9.153017e+00 184 100 5
-4.937777e-01 7.693401e-01 -9.166908e+00 217 136 1
4.583285e-02 2.063045e-01 -1.154404e+01 244 245 141
5.259834e-01 5.888822e-01 -1.194473e+01 127 110 5
5.554194e-01 5.349776e-01 -1.187880e+01 134 109 8
4.785547e-01 5.577423e-01 -1.190461e+01 119 103 0
-1.040714e+00 2.172084e-01 -1.101531e+01 243 230 106
5.558794e-01 6.209911e-01 -1.198956e+01 96 85 0
-6.883464e-01 -5.602555e-01 -9.180041e+00 44 56 8
3.663832e+00 -9.880926e-01 -9.635668e+00 122 124 86
4.926766e-01 5.741734e-01 -1.196228e+01 165 154 47
-2.008041e-01 4.689616e-01 -1.188821e+01 184 151 0
9.669202e-01 1.146420e+00 -1.183011e+01 30 31 0
1.782420e+01 -3.791124e-01 -1.970541e+01 92 91 35
-1.811380e+00 2.102009e-01 -8.867086e+00 255 252 157
1.644891e+01 -1.615416e-01 -1.766096e+01 165 159 83
1.725508e+01 4.583296e+00 -1.519614e+01 113 109 40
1.787730e+01 3.847525e+00 -1.674484e+01 145 128 59
5.446900e-01 4.106573e-01 -1.185006e+01 118 66 0
-7.106505e-01 -4.797416e-01 -9.614178e+00 101 96 41
1.728249e+01 3.597169e+00 -1.571518e+01 162 145 76
-1.888469e-01 5.053222e-01 -8.917781e+00 53 52 21
6.783158e-01 -8.329662e-01 -8.905336e+00 199 174 76
1.710913e+01 4.434542e+00 -1.502619e+01 153 148 82
1.690544e+01 4.195902e+00 -1.469804e+01 121 117 46
1.751712e+01 4.360914e+00 -1.558295e+01 154 141 73
1.651323e+01 1.270247e+00 -1.586401e+01 159 146 78
1.726837e+01 3.960237e+00 -1.508177e+01 161 154 84
-6.157501e-01 -2.478168e-01 -9.582590e+00 21 31 0
1.801276e+01 -3.302649e-01 -1.966220e+01 117 111 51
1.763086e+01 -3.498817e-01 -1.988978e+01 94 74 40
1.763086e+01 -3.498817e-01 -1.988978e+01 94 74 40
4.531557e+00 -2.418509e-01 -1.142868e+01 133 95 57
8.225141e-01 8.544002e-01 -1.206583e+01 146 140 66
1.726887e+01 3.718679e-01 -1.938894e+01 154 155 98
1.935952e+01 2.771322e-01 -2.296257e+01 67 66 1
1.790579e+01 9.962327e-01 -2.064558e+01 150 159 94
1.095462e+01 -2.050683e+00 -1.225985e+01 157 153 82
1.595394e+01 3.076068e-01 -1.969682e+01 40 24 0
1.196986e+01 -5.299017e+00 -9.667888e+00 55 53 15
2.985555e+00 4.700897e-01 -1.292031e+01 202 184 79
3.049227e+00 1.062710e-01 -1.231667e+01 181 149 20
2.640375e+00 4.413503e-01 -1.274948e+01 137 104 2
2.640375e+00 4.413503e-01 -1.274948e+01 137 104 2
1.282272e+00 9.606382e-02 -1.173995e+01 199 160 6
5.458865e-01 6.269433e-01 -1.192753e+01 193 184 67
5.385936e-01 6.074976e-01 -1.193837e+01 134 124 13
5.735593e-01 5.188451e-01 -1.184353e+01 159 140 36
4.667173e-01 5.562150e-01 -1.185715e+01 195 174 55
4.654982e-01 5.630428e-01 -1.188621e+01 119 103 0
3.478584e-01 7.727589e-01 -1.223499e+01 16 21 0
4.470274e-01 4.340387e-01 -1.195371e+01 130 80 0
4.470274e-01 4.340387e-01 -1.195371e+01 130 80 0
1.044152e-01 2.486199e-01 -1.148493e+01 249 231 107
-1.454408e-02 4.978490e-01 -1.198725e+01 178 147 2
-1.611009e-01 3.106522e-01 -1.160281e+01 249 243 118
-9.875664e-01 2.375069e-01 -1.109410e+01 245 233 121
1.103692e+01 -3.121491e+00 -9.951056e+00 46 53 1
1.200048e+01 -5.218115e+00 -9.679437e+00 52 50 3
1.208110e+01 -5.436725e+00 -9.858602e+00 109 109 63
-3.312090e-01 1.020605e+00 -9.326621e+00 186 122 0
1.201471e+01 -5.578976e+00 -9.935373e+00 111 113 63
1.209379e+01 -5.706505e+00 -9.910437e+00 38 41 0
-2.842165e-01 8.836120e-01 -9.137806e+00 253 177 13
2.584410e+00 5.177837e-01 -1.271650e+01 223 197 84
-4.982669e-01 8.413966e-01 -9.195950e+00 205 133 0
2.006900e+00 2.124170e-01 -1.202997e+01 170 142 0
1.975731e+00 7.234755e-02 -1.178117e+01 215 186 32
1.947655e+00 1.507334e-02 -1.180945e+01 227 198 44
1.327299e+00 5.404456e-01 -1.209777e+01 181 155 72
1.123860e+00 -3.691110e-02 -1.122215e+01 136 116 2
-3.661908e-02 4.464157e-01 -1.188301e+01 185 149 9
1.260000e+01 -2.661695e+00 -1.200097e+01 31 40 8
1.049443e+01 -2.226322e+00 -1.191623e+01 42 50 3
1.202308e+01 -5.828774e+00 -9.674145e+00 52 56 2
2.968473e+00 3.593246e-01 -1.270665e+01 113 87 0
2.748244e+00 4.207740e-01 -1.272907e+01 100 75 0
2.287084e+00 1.878685e-01 -1.204124e+01 141 115 5
2.079578e+00 4.316433e-01 -1.242958e+01 219 188 61
1.990703e+00 3.378871e-02 -1.182844e+01 184 155 1
1.384495e+00 4.263251e-01 -1.216710e+01 178 142 22
1.357694e+00 -3.781153e-02 -1.141420e+01 195 164 8
1.071122e+00 -2.543512e-02 -1.124777e+01 146 122 5
2.760673e-01 3.867105e-01 -1.185890e+01 165 119 0
-5.900436e-01 3.470294e-01 -9.274454e+00 0 13 0
-6.249818e-01 3.610191e-01 -9.269200e+00 23 38 17
-5.287489e-01 -5.949638e-01 -9.547338e+00 71 73 16
9.989235e+00 -2.905418e+00 -1.034810e+01 24 29 6
9.989235e+00 -2.905418e+00 -1.034810e+01 24 29 6
2.704645e+00 2.740946e-01 -1.237894e+01 223 195 57
2.685717e+00 3.776967e-01 -1.269848e+01 221 189 67
1.095896e+00 9.705809e-01 -1.182427e+01 10 11 0
-5.500535e-01 8.371843e-01 -9.250470e+00 186 121 4
1.247789e+00 1.502563e-01 -1.171323e+01 197 153 4
1.089934e+00 1.063317e-01 -1.146289e+01 194 155 2
5.212627e-01 6.003854e-01 -1.188703e+01 191 180 55
7.613915e-01 2.241707e-01 -1.176422e+01 202 163 27
8.910040e-02 6.800967e-02 -1.114322e+01 242 244 137
9.922594e+00 -2.730891e+00 -1.020823e+01 13 18 0
-5.227641e-01 6.141614e-01 -9.111936e+00 166 95 4
-5.939587e-01 5.577947e-01 -9.248384e+00 158 94 0
4.703903e-01 3.328288e-01 -1.184202e+01 197 150 19
2.718932e-01 5.129895e-01 -1.210944e+01 138 111 0
2.633531e-01 1.679120e-01 -1.147971e+01 249 233 113
1.020174e+01 -2.803286e+00 -1.044242e+01 7 11 0
-3.556165e-01 8.548571e-01 -9.142450e+00 223 144 0
-4.415479e-01 7.714675e-01 -9.112239e+00 174 95 0
-6.043027e-01 5.158330e-01 -9.311008e+00 40 35 1
1.174349e+01 -4.742818e+00 -9.407307e+00 124 124 52
1.151136e+01 -9.334824e-01 -1.907652e+01 11 3 3
1.146340e+00 2.875967e-01 -1.199620e+01 144 115 0
-6.335055e-02 -5.882341e-02 -1.083892e+01 231 235 125
-7.845361e-01 -3.085609e-01 -1.007711e+01 216 219 114
5.767301e-01 3.685587e-01 -1.185177e+01 143 97 8
4.309191e-01 1.760908e-01 -1.150747e+01 186 146 0
-5.335686e-01 -3.983693e-01 -9.087712e+00 185 190 112
1.146145e+01 -2.037030e+00 -1.200695e+01 15 20 0
8.754257e-01 8.327920e-01 -1.204520e+01 137 124 39
8.754257e-01 8.327920e-01 -1.204520e+01 137 124 39
-5.231322e-01 7.120599e-01 -9.162884e+00 206 121 3
1.396683e+00 1.003646e+00 -1.175679e+01 178 177 125
2.526293e-01 5.817786e-01 -1.016960e+01 16 17 0
1.841230e+01 -2.193456e-01 -1.999904e+01 96 84 33
-5.887440e-01 3.536975e-01 -9.200500e+00 21 36 13
1.243000e+00 6.982528e-01 -1.186429e+01 89 89 27
5.998846e-01 7.257308e-01 -1.190536e+01 133 122 40
5.269523e-01 7.118216e-01 -1.194793e+01 140 129 47
2.070943e+00 4.181664e-01 -1.245909e+01 138 113 12
1.900613e+00 2.862647e-01 -1.211839e+01 191 168 68
6.389170e-01 5.437150e-01 -1.184476e+01 163 150 96
4.664972e-01 5.933582e-01 -1.186097e+01 199 181 74
4.556078e-01 5.453434e-01 -1.182185e+01 122 105 0
7.370191e-01 4.527087e-01 -1.186708e+01 88 66 19
3.927517e-01 4.554708e-01 -1.179297e+01 143 92 0
3.919729e-01 4.615029e-01 -1.203769e+01 94 56 2
5.959651e-01 3.507192e-01 -1.187447e+01 163 118 33
4.310861e-01 3.754927e-01 -1.188211e+01 118 66 1
2.470378e-01 4.091603e-01 -1.189410e+01 188 142 27
2.704579e-01 3.461812e-01 -1.167193e+01 176 127 10
9.587900e-02 2.889611e-01 -1.157420e+01 191 150 33
-6.129843e-01 -2.201399e-02 -9.622102e+00 56 63 47
-6.699334e-01 -1.960920e-02 -9.578181e+00 27 40 10
-9.289366e-01 2.034332e-01 -1.115821e+01 222 208 113
-9.868821e-01 2.016306e-01 -1.105192e+01 254 251 166
1.804607e+00 -1.826595e+00 -1.050109e+01 12 25 1
-5.784617e-01 -4.981408e-01 -9.818202e+00 65 66 22
2.405790e-01 6.928992e-01 -1.011926e+01 161 156 95
2.486753e-01 6.717513e-01 -1.013561e+01 69 67 13
2.486753e-01 6.717513e-01 -1.013561e+01 69 67 13
-6.375791e-01 4.070501e-01 -9.338984e+00 28 43 16
3.226354e+00 -6.630207e-02 -1.204459e+01 129 106 8
5.606676e-01 5.980806e-01 -1.182118e+01 92 73 0
1.904835e+00 2.899859e-01 -1.208320e+01 117 97 5
1.292962e+00 4.593834e-01 -1.215303e+01 174 158 87
1.326204e+00 6.150106e-02 -1.147665e+01 200 168 47
-1.645335e-01 4.436899e-01 -1.183367e+01 185 144 26
-6.419285e-01 8.140351e-03 -9.576473e+00 81 91 64
-6.419285e-01 8.140351e-03 -9.576473e+00 81 91 64
-6.326872e-01 -1.123537e-02 -9.586153e+00 8 18 1
-6.131388e-01 -3.701483e-02 -9.622407e+00 9 20 0
-5.455851e-01 8.301084e-01 -9.256155e+00 196 124 4
2.359520e-01 9.437286e-01 -9.807635e+00 206 140 4
9.377366e-01 1.543628e+00 -1.202447e+01 93 99 56
9.100014e-01 1.545076e+00 -1.211534e+01 93 94 63
7.887859e-01 1.426582e+00 -1.194114e+01 1 5 0
2.740122e-01 7.060959e-01 -1.015119e+01 62 58 0
-5.562419e-01 4.889855e-01 -9.163352e+00 128 78 7
5.239605e-01 6.864570e-01 -1.196124e+01 195 185 98
5.038320e-01 6.349330e-01 -1.178150e+01 98 82 0
4.972617e-01 6.454368e-01 -1.182904e+01 115 103 6
2.303439e+00 1.868750e-01 -1.205281e+01 119 99 4
2.010682e-01 5.115883e-01 -1.203172e+01 126 91 0
-6.508193e-01 -1.561873e-02 -9.569756e+00 63 73 46
-6.295088e-01 -1.917293e-01 -9.696398e+00 28 43 12
