ply
format ascii 1.0
element face 0
property list uchar int vertex_indices
element vertex 463
property float x
property float y
property float z
property uchar diffuse_red
property uchar diffuse_green
property uchar diffuse_blue
end_header
-2.780270e-01 1.349369e+00 -7.825121e+00 191 128 0
-4.257606e-01 1.295995e+00 -7.831258e+00 168 104 10
-4.265838e-01 1.205530e+00 -7.810724e+00 134 88 0
-4.484526e-01 1.174272e+00 -7.832974e+00 123 77 0
-5.794582e-01 6.797131e-01 -8.020981e+00 82 52 0
-2.773460e+00 8.455335e-01 -1.314081e+01 193 171 30
3.400268e+00 5.269962e-02 -1.319028e+01 206 181 60
-2.930184e+00 -3.024651e-01 -1.082758e+01 207 187 57
-2.930184e+00 -3.024651e-01 -1.082758e+01 207 187 57
2.250643e+00 -4.814231e-01 -1.185587e+01 226 213 110
2.502573e+00 -5.219879e-01 -1.182615e+01 201 189 70
-2.660204e+00 -4.492888e-01 -1.064779e+01 233 214 83
-2.485630e+00 -5.467419e-01 -1.055077e+01 218 210 83
-2.815120e+00 -6.059269e-01 -1.030026e+01 238 210 84
2.012689e+00 -7.220768e-01 -1.126928e+01 219 225 139
1.123886e+00 -7.436337e-01 -9.622370e+00 28 36 20
1.123886e+00 -7.436337e-01 -9.622370e+00 28 36 20
6.598866e-02 1.255800e+00 -7.843868e+00 64 73 17
-7.305785e-01 1.067263e+00 -8.055042e+00 166 101 0
-5.433391e-01 1.025644e+00 -7.939541e+00 72 44 0
-6.253300e-01 8.089650e-01 -7.972664e+00 110 66 0
-2.946005e+00 9.043263e-01 -1.326173e+01 209 199 79
-2.784033e+00 8.885856e-01 -1.310951e+01 238 219 87
-5.721058e-01 6.039816e-01 -8.060995e+00 56 37 0
-2.768069e+00 7.073516e-01 -1.288715e+01 233 216 66
-5.807468e-01 3.464908e-01 -8.105288e+00 38 43 9
3.528822e+00 1.713259e-01 -1.351507e+01 194 175 54
-2.375098e+00 1.966955e-01 -1.200785e+01 205 186 47
2.246792e+00 -4.410552e-01 -1.186705e+01 80 61 0
2.548826e+00 -5.011943e-01 -1.181809e+01 229 210 89
1.965825e+00 -7.738825e-01 -1.117910e+01 208 214 133
1.274890e+00 -6.409296e-01 -9.662682e+00 7 25 1
1.359497e+00 -1.216906e+00 -1.027889e+01 141 152 76
1.268130e+00 -1.533297e+00 -9.729753e+00 181 191 94
-1.310680e+00 -1.406894e+00 -8.321809e+00 214 221 141
2.923646e+00 2.370998e+00 -1.340642e+01 118 129 71
-2.240941e-01 1.246739e+00 -7.797433e+00 80 51 0
1.251183e-01 1.209947e+00 -7.830311e+00 27 43 0
-4.038188e-01 1.165170e+00 -7.832293e+00 80 52 0
-4.863693e-01 1.112196e+00 -7.870963e+00 73 46 0
-5.984293e-01 8.612020e-01 -7.948483e+00 92 47 0
-5.858384e-01 7.544280e-01 -7.989918e+00 90 50 0
-5.698811e-01 7.435758e-01 -8.058452e+00 112 80 23
-5.520732e-01 7.097722e-01 -8.065315e+00 58 30 0
-6.405986e-01 5.637253e-01 -8.014093e+00 88 63 12
-8.795808e-01 5.568252e-01 -8.066115e+00 36 40 4
3.529510e+00 1.568588e-01 -1.332464e+01 120 102 3
3.611051e+00 1.186365e-02 -1.325527e+01 192 169 50
-2.283834e+00 -1.357491e-01 -1.137066e+01 226 211 69
-2.680523e+00 -4.126255e-01 -1.069919e+01 160 141 10
-2.684585e+00 -4.140554e-01 -1.071052e+01 160 141 10
1.976959e+00 -6.938417e-01 -1.124884e+01 89 95 19
1.124124e+00 -5.948347e-01 -9.805422e+00 225 237 173
1.894483e+00 -8.139062e-01 -1.105564e+01 225 231 152
1.408947e+00 -1.198191e+00 -1.023408e+01 173 183 99
-1.343055e+00 -1.359169e+00 -8.440428e+00 63 72 6
-2.849323e-01 1.267726e+00 -7.780752e+00 136 89 0
-1.900118e-01 1.219894e+00 -7.807235e+00 67 60 13
-4.847823e-01 1.043393e+00 -7.888177e+00 59 50 3
-6.015574e-01 9.556052e-01 -7.892200e+00 117 73 9
-2.795864e+00 7.784611e-01 -1.293311e+01 206 185 42
-7.793595e-01 5.502256e-01 -8.029137e+00 31 20 0
-3.272488e+00 2.930138e-01 -1.190688e+01 228 206 69
-3.125647e+00 2.512155e-01 -1.188937e+01 222 196 57
-8.885826e-02 2.124653e-01 -7.846772e+00 29 40 1
1.204092e+00 -1.438368e+00 -9.727712e+00 162 173 81
-1.221738e+00 -1.181875e+00 -8.350155e+00 40 58 10
1.403287e+00 -1.536722e+00 -9.672079e+00 201 208 105
-3.784633e-01 1.277514e+00 -7.817382e+00 218 164 26
1.294731e-01 1.132862e+00 -7.851955e+00 23 40 4
-6.495647e-01 9.683163e-01 -7.872519e+00 119 66 0
-6.774575e-01 8.765746e-01 -7.914519e+00 124 71 1
-5.315303e-01 7.860552e-01 -8.026135e+00 52 26 0
-6.340569e-01 7.712985e-01 -7.961793e+00 132 88 9
-4.851036e-01 7.386815e-01 -8.005188e+00 73 65 3
-6.814312e-01 5.259297e-01 -8.000571e+00 14 13 0
4.183331e+00 5.685229e-01 -1.445394e+01 121 110 23
-6.791699e-01 4.623694e-01 -8.039791e+00 10 24 2
-5.183457e-01 -6.604466e-02 -7.793684e+00 15 28 0
2.791213e+00 -5.995043e-01 -1.174111e+01 215 202 76
9.811760e-01 -4.193712e-01 -1.002454e+01 63 68 1
-8.156447e-01 -5.928942e-01 -7.975897e+00 16 36 2
-1.025243e+00 -8.892603e-01 -8.075056e+00 25 48 6
1.138603e+00 -1.471006e+00 -9.540493e+00 166 175 82
1.299979e+00 -1.524065e+00 -9.516716e+00 202 208 110
8.438652e-01 -1.594237e+00 -9.232349e+00 162 172 83
1.069131e+00 -1.732241e+00 -9.108849e+00 181 189 93
1.391345e-01 1.299851e+00 -7.866012e+00 35 12 10
-3.398612e+00 -1.807039e-01 -1.097746e+01 247 223 91
2.702770e+00 -3.975457e-01 -1.213972e+01 226 206 78
-3.829057e-01 -1.586971e-01 -7.882338e+00 20 37 1
-2.950176e+00 -7.977541e-01 -9.990859e+00 237 217 86
-7.913159e-01 -4.248015e-01 -7.899715e+00 15 32 0
-7.263017e-01 -4.514429e-01 -7.988758e+00 15 31 2
1.032840e+00 -7.725943e-01 -9.549997e+00 3 4 7
2.732564e-01 1.128826e+00 -8.108654e+00 67 67 4
-4.541296e-01 9.019567e-01 -7.950546e+00 64 60 5
-4.816852e-01 6.249923e-01 -8.005726e+00 71 68 7
-4.827535e-01 6.204085e-01 -7.995415e+00 71 68 7
-4.836655e-01 6.216618e-01 -7.998178e+00 71 68 7
-6.947487e-01 5.919931e-01 -7.997059e+00 143 100 7
5.824871e-01 5.407821e-01 -8.541617e+00 63 64 0
-2.497196e+00 -4.940771e-01 -1.062268e+01 230 213 83
-2.792000e+00 -4.944340e-01 -1.051185e+01 188 163 34
-2.787141e+00 -4.921002e-01 -1.049922e+01 188 163 34
3.077360e+00 -6.547202e-01 -1.171162e+01 184 153 30
5.196741e-01 -1.166872e+00 -9.198171e+00 76 82 12
-2.364914e+00 -1.305739e+00 -8.934001e+00 235 236 142
9.434660e-01 -1.494551e+00 -9.558009e+00 127 135 60
-5.511617e-01 8.866749e-01 -7.964699e+00 57 25 0
3.691238e+00 -1.667702e-01 -1.290190e+01 210 186 59
-2.199384e+00 -7.557226e-01 -1.001804e+01 239 243 146
-8.875185e-01 -9.351339e-01 -8.026550e+00 29 51 13
-1.528321e-01 -1.945692e+00 -8.609407e+00 165 171 98
-4.184785e-01 8.057710e-01 -7.992962e+00 58 57 0
-6.224932e-01 4.977112e-01 -8.011379e+00 6 12 0
-5.233108e-01 -5.532111e-01 -7.971995e+00 16 33 0
1.798519e+00 -1.437000e+00 -9.888164e+00 226 229 126
8.363570e-01 -1.708850e+00 -9.108659e+00 166 176 87
-4.817017e-01 -1.305972e+00 -8.465588e+00 84 86 21
-2.430595e-01 -1.778607e+00 -8.572036e+00 34 49 8
6.591156e-01 6.829442e-01 -8.663596e+00 56 54 2
-1.082000e+00 -1.557012e+00 -8.298678e+00 26 38 0
-8.623549e-01 -1.263059e+00 -8.466117e+00 45 61 19
-2.447163e-01 1.260972e+00 -7.793682e+00 116 83 5
-3.448075e-01 1.221711e+00 -7.803751e+00 121 80 6
-5.377940e-01 1.188551e+00 -7.877342e+00 122 66 4
-5.961238e-01 1.014038e+00 -7.910902e+00 105 61 9
-5.629670e-01 1.002572e+00 -7.914664e+00 90 58 6
-2.566830e+00 1.317897e+00 -1.405085e+01 229 227 123
3.794963e-01 7.653221e-01 -8.443172e+00 70 71 4
-3.266145e+00 6.323504e-01 -1.271490e+01 215 203 86
-2.495414e+00 -6.071626e-01 -1.028189e+01 231 220 104
1.006963e+00 -1.546908e+00 -9.467406e+00 161 171 85
-4.716278e-01 1.187105e+00 -7.850154e+00 153 106 22
-3.249699e+00 -1.971428e-02 -1.127284e+01 253 233 100
-3.249699e+00 -1.971428e-02 -1.127284e+01 253 233 100
9.798012e-01 -1.484923e-01 -9.396344e+00 66 74 23
9.060771e-01 -1.940470e-01 -9.276243e+00 69 70 2
-2.937826e+00 -9.200357e-01 -9.561457e+00 235 212 89
-9.524345e-01 -1.789592e+00 -8.451325e+00 66 73 28
-8.354926e-01 -1.807207e+00 -8.492952e+00 73 82 29
-6.246148e-01 1.079270e+00 -7.961056e+00 121 73 0
-3.279488e-01 6.263388e-01 -7.969402e+00 50 53 6
-3.808872e-01 -1.008855e-01 -7.939392e+00 13 29 3
-3.732663e-01 1.084709e+00 -7.930167e+00 50 47 2
4.947578e-01 8.528775e-01 -8.572638e+00 55 53 3
-6.610571e-01 -3.860003e-01 -8.021264e+00 13 29 2
1.291154e+00 -1.461220e+00 -9.657513e+00 190 196 96
-1.240648e+00 -1.419971e+00 -8.513269e+00 50 68 26
-5.807197e-01 8.174457e-01 -8.011464e+00 107 71 3
-7.366161e-01 6.484257e-01 -8.015560e+00 116 72 2
-6.753400e-01 4.611608e-01 -7.990945e+00 10 24 2
-7.075687e-01 8.771978e-02 -8.127070e+00 4 15 1
-4.740043e-01 -2.678431e-01 -7.867755e+00 17 33 2
7.566368e-01 -5.814197e-01 -9.277667e+00 77 76 10
-1.137871e+00 -1.270200e+00 -8.277917e+00 44 62 22
-4.044827e-01 2.247832e-01 -8.169793e+00 18 28 0
-5.739430e-01 1.360405e-01 -8.282502e+00 47 55 6
-2.872055e+00 -3.841643e-01 -1.068307e+01 244 223 95
-2.715066e-01 -1.192767e-01 -7.879801e+00 18 31 0
-1.285623e+00 -6.460291e-01 -8.615346e+00 231 236 136
-6.725986e-01 -5.939701e-01 -7.930346e+00 21 41 3
-5.264112e-01 4.564142e-01 -8.075424e+00 51 58 2
-5.264373e-01 2.508099e-01 -8.148748e+00 52 60 3
5.027777e-01 -5.105590e-01 -9.210436e+00 84 86 13
1.105133e+00 -6.733529e-01 -9.154694e+00 1 6 0
-1.806411e-01 1.275927e+00 -7.804224e+00 106 82 12
-4.137981e-01 1.185175e+00 -7.816196e+00 119 82 7
-5.428513e-01 8.516781e-01 -8.023440e+00 71 42 2
-3.159354e+00 4.991924e-01 -1.219876e+01 232 216 99
2.810193e+00 -6.085485e-01 -1.193556e+01 215 203 82
-2.775807e+00 -4.733108e-01 -1.039391e+01 194 170 46
-2.844654e+00 -6.449775e-01 -1.019703e+01 235 214 87
-7.681787e-01 -1.799963e+00 -8.428468e+00 84 92 32
-1.259695e+00 -1.762478e+00 -8.350539e+00 167 169 82
7.298160e-02 1.314611e+00 -7.836922e+00 97 80 2
-1.378597e-01 1.282281e+00 -7.768699e+00 154 125 38
-3.965718e-01 1.300984e+00 -7.827895e+00 147 89 0
-6.354712e-01 6.134986e-01 -8.022354e+00 100 65 0
-2.637326e+00 9.962592e-01 -1.330519e+01 236 217 94
-2.600399e+00 1.700658e-04 -1.161503e+01 215 196 65
-2.442063e-01 -1.845527e+00 -8.550424e+00 65 70 15
-3.804587e-01 1.279214e+00 -7.822951e+00 220 170 41
-6.339360e-01 8.637211e-01 -7.947404e+00 122 73 4
-6.650234e-01 7.094138e-01 -7.967661e+00 131 83 13
-7.235480e-01 6.873561e-01 -7.974105e+00 130 78 9
-8.272227e-01 6.838138e-01 -8.010687e+00 122 73 0
-6.027997e-01 6.352155e-01 -7.994420e+00 91 58 0
-7.283741e-01 4.922218e-01 -7.931430e+00 17 30 4
-5.301625e-01 -2.053276e-01 -7.890165e+00 8 26 2
-2.354766e+00 -1.902794e-01 -1.171459e+01 232 218 85
9.151232e-01 -1.357064e+00 -9.583207e+00 96 107 45
-8.678104e-01 -1.762478e+00 -8.635218e+00 52 60 13
-4.233044e-01 -1.828015e+00 -8.713237e+00 86 94 35
3.002948e-01 1.091898e+00 -7.826563e+00 80 76 11
-8.122290e-01 7.805341e-01 -8.005825e+00 138 84 0
-4.281964e-01 6.350588e-01 -8.022397e+00 70 71 14
-8.225485e-01 6.036611e-01 -8.030692e+00 125 85 8
3.140011e+00 -9.126305e-02 -1.304245e+01 216 198 70
-3.052371e+00 -2.058667e-01 -1.103887e+01 238 220 94
-7.651547e-01 -5.362394e-01 -8.009394e+00 10 28 3
-7.224002e-01 -6.260681e-01 -7.953098e+00 27 45 17
-1.172751e-01 -1.756453e+00 -8.580040e+00 159 169 98
8.607225e-02 1.155526e+00 -7.780675e+00 26 44 4
-6.695989e-02 1.009192e+00 -7.638475e+00 29 47 7
3.146827e+00 -7.803295e-01 -1.163663e+01 247 235 128
-2.574905e+00 -8.990056e-01 -9.829401e+00 248 247 155
-3.922279e-01 -1.167311e+00 -8.399711e+00 89 91 18
-1.397450e-01 -1.699545e+00 -8.593543e+00 38 50 0
2.972720e+00 -4.729792e-01 -1.216567e+01 222 206 80
7.734766e-01 4.363773e-01 -8.894126e+00 59 59 0
3.467354e+00 -3.688305e-01 -1.255284e+01 190 155 25
-1.643293e+00 -3.862216e-01 -8.664241e+00 230 216 83
-4.373271e-01 1.229691e+00 -7.838396e+00 170 116 21
-2.521076e+00 1.258861e+00 -1.401644e+01 214 202 73
-7.901450e-01 2.789667e-01 -8.052262e+00 7 24 0
-2.756109e+00 -5.483022e-01 -1.034304e+01 239 211 85
-4.141695e-01 1.181242e+00 -7.797666e+00 121 82 10
8.390403e-02 1.146806e+00 -7.754780e+00 16 37 0
-2.667541e+00 -4.540620e-02 -1.145326e+01 200 180 45
-2.363400e+00 -3.283024e-01 -1.093008e+01 234 218 77
5.533234e-01 3.948776e-01 -8.664491e+00 65 66 0
-2.534344e+00 3.061473e-01 -1.210575e+01 231 214 72
5.203512e-01 1.121724e-01 -8.838544e+00 78 80 7
-3.741991e-01 1.240975e+00 -7.790405e+00 151 106 0
-5.512327e-01 3.194175e-01 -8.118886e+00 38 48 0
-6.321210e-01 9.275422e-01 -7.935242e+00 109 64 0
-7.650923e-01 6.311912e-01 -8.000482e+00 115 66 0
-1.403174e+00 -1.505449e+00 -8.237119e+00 220 226 128
-6.348765e-01 8.980283e-01 -7.938798e+00 114 67 0
-1.783474e+00 7.290956e-01 -1.326404e+01 203 184 55
-2.006326e+00 -9.385413e-02 -1.152599e+01 215 203 87
-2.498777e+00 -5.765589e-01 -1.046636e+01 227 213 101
2.482597e-01 1.187259e+00 -7.916078e+00 70 66 14
-1.655345e+00 4.005624e-01 -6.641196e+00 78 82 4
-1.722760e+00 1.319882e-01 -1.201981e+01 177 166 48
-2.501923e+00 -6.503909e-01 -1.031467e+01 253 253 154
3.690216e-01 -1.449623e+00 -9.237124e+00 77 83 33
-1.906254e-01 1.223210e+00 -7.812883e+00 73 65 9
4.873688e+00 -2.374549e-01 -1.303347e+01 95 104 53
-1.969961e+00 5.482387e-01 -1.279768e+01 195 176 48
-1.984787e+00 5.595168e-01 -1.295879e+01 195 176 48
-2.013399e+00 1.332296e+00 -1.448720e+01 244 228 93
-3.011573e-01 -1.939514e+00 -8.576230e+00 140 150 79
-2.070231e+00 9.398969e-01 -1.351359e+01 233 215 87
-6.986801e-01 -6.756644e-01 -7.961643e+00 13 36 0
-4.282847e-01 -1.451582e+00 -8.545750e+00 59 62 5
-8.496015e-01 -5.028174e-01 -7.969166e+00 13 31 0
-6.339494e-01 5.151008e-01 -8.051056e+00 14 13 9
-2.501753e+00 -1.652383e-01 -1.115909e+01 238 220 94
-2.231703e+00 -7.953999e-01 -1.012513e+01 243 247 162
1.447572e+00 -1.895438e+00 -8.761666e+00 205 217 117
-2.476755e-01 -1.917815e+00 -8.283300e+00 174 186 104
-4.099825e-01 1.598508e+00 -8.337640e+00 234 178 9
-1.758689e-01 1.275982e+00 -7.804061e+00 110 79 10
6.043085e+00 7.178621e-01 -1.740143e+01 83 85 75
-7.651757e-01 2.945182e-01 -8.026753e+00 10 22 4
-2.944917e+00 -2.699913e-01 -1.089921e+01 245 225 94
-2.995021e+00 -7.488659e-01 -9.916781e+00 206 177 47
-2.915350e-01 -1.747937e+00 -8.498366e+00 37 50 10
-1.387408e-01 1.291665e+00 -7.795494e+00 157 118 27
-3.242236e+00 -6.627598e-02 -1.126626e+01 229 209 78
-3.282747e+00 9.169377e-02 -1.153161e+01 233 210 73
-2.666393e+00 -4.607656e-02 -1.145503e+01 200 180 45
1.224692e+00 -1.623825e+00 -9.323874e+00 198 209 107
-3.286960e+00 -4.387029e-01 -1.047594e+01 248 224 92
1.076630e+00 -4.346539e-01 -9.352546e+00 228 234 136
-3.955988e-01 -1.753866e+00 -8.475511e+00 85 92 43
4.510179e+00 -2.495410e-02 -1.333239e+01 195 182 71
3.663955e+00 2.914244e-01 -1.377293e+01 168 147 40
3.591985e+00 3.469419e-01 -1.378503e+01 217 197 68
-3.252786e-01 1.231610e+00 -7.787029e+00 120 84 11
-3.014578e-01 1.218472e+00 -7.806145e+00 90 64 0
9.979730e+00 2.278131e+00 -1.963302e+01 142 172 163
-9.499073e-01 6.013070e-01 -8.166606e+00 38 51 4
-2.181875e+00 -2.506183e-01 -1.111742e+01 217 205 88
-3.119732e+00 -4.795608e-01 -1.045767e+01 187 172 43
1.006554e+01 2.399611e+00 -1.982083e+01 227 255 251
9.756009e+00 2.341163e+00 -1.976716e+01 128 161 140
-2.706174e+00 8.993178e-02 -1.151419e+01 237 219 95
-3.301249e+00 -1.815404e-01 -1.097119e+01 244 232 96
-2.225986e-01 -1.751367e+00 -8.532033e+00 40 54 18
-8.950617e-01 6.925799e-01 -8.103016e+00 135 90 0
-2.075874e+00 -6.038272e-02 -1.155183e+01 236 217 96
-2.545217e+00 3.158503e-01 -1.223010e+01 234 214 91
-2.042808e+00 8.960759e-02 -1.187643e+01 229 214 88
1.272523e+00 -1.393498e+00 -9.784882e+00 185 197 110
-2.075496e+00 7.491003e-01 -1.315295e+01 216 197 69
-2.156618e+00 -1.789090e-01 -1.135673e+01 224 209 88
-6.722193e-01 2.366624e+00 -1.384486e+01 97 103 58
-6.716679e-01 2.248002e+00 -1.394352e+01 13 21 0
-1.478043e+00 1.442959e+00 -1.464330e+01 191 165 44
-1.193803e+00 1.357125e+00 -1.469083e+01 215 186 68
-2.644492e+00 1.158413e+00 -1.375241e+01 197 182 80
-1.801584e+00 7.635694e-01 -1.332438e+01 228 195 79
-1.337656e+00 5.169658e-01 -1.294607e+01 179 159 45
-1.337656e+00 5.169658e-01 -1.294607e+01 179 159 45
4.305095e+00 -8.460405e-01 -1.178825e+01 192 159 60
3.939188e+00 -8.956682e-01 -1.154963e+01 191 161 63
-1.799608e+00 7.677829e-02 -1.195740e+01 191 168 55
3.684757e+00 -1.278582e+00 -1.073921e+01 240 219 121
5.760716e-01 -6.750645e-01 -9.113164e+00 88 84 13
-4.127013e-01 -1.888049e+00 -8.469045e+00 115 121 59
-2.973940e-01 -1.925501e+00 -8.419324e+00 157 159 89
-1.425495e-01 1.285281e+00 -7.776026e+00 160 126 36
-6.376951e-01 2.226050e+00 -1.413452e+01 134 142 104
-1.025579e+00 8.693360e-01 -8.589942e+00 151 113 42
-1.395648e+00 1.870726e+00 -1.552641e+01 250 228 109
-1.411944e+00 1.861255e+00 -1.554119e+01 255 233 113
4.707298e+00 -5.778534e-01 -1.213565e+01 225 189 92
-1.059559e+00 6.268526e-01 -1.317886e+01 204 179 60
4.740193e+00 -8.588959e-01 -1.211612e+01 213 179 73
-2.982410e+00 8.217085e-01 -1.296983e+01 216 204 90
3.890691e+00 -9.829332e-01 -1.140433e+01 193 165 68
3.805958e+00 -1.171380e+00 -1.092255e+01 189 162 62
-2.637140e+00 -1.604770e-03 -1.142142e+01 253 228 107
3.086741e-01 -8.815531e-01 -8.986639e+00 82 79 10
-2.665369e+00 -4.524127e-01 -1.066271e+01 236 211 85
-1.482985e-01 1.313993e+00 -7.785167e+00 142 96 0
8.864185e-01 1.123718e+00 -8.219563e+00 43 50 15
2.786560e-01 6.293244e-01 -7.196283e+00 25 34 4
-7.031188e-01 2.318346e+00 -1.386439e+01 28 36 0
-7.186049e-01 6.850661e-01 -7.970625e+00 128 79 0
-8.941896e-01 7.000347e-01 -8.088528e+00 148 85 0
-1.867114e-01 1.248495e-01 -7.909500e+00 37 47 7
5.468199e+00 -4.322224e-01 -1.304965e+01 144 116 36
-2.611034e+00 8.220078e-01 -1.300002e+01 242 216 93
1.208365e+00 -4.340959e-01 -9.056965e+00 28 32 5
-2.320176e+00 3.248823e-01 -1.226110e+01 255 229 110
4.701524e+00 -1.471101e+00 -1.103567e+01 198 162 50
3.766310e+00 -1.454708e+00 -1.065764e+01 213 195 83
-1.089916e+00 -7.530098e-01 -8.133698e+00 49 61 24
1.141151e+00 -1.479029e+00 -9.604353e+00 180 178 89
-1.065562e+00 -1.209283e+00 -8.119707e+00 34 48 13
6.803879e-01 -1.947222e+00 -8.615836e+00 193 194 101
-7.444554e-01 1.148778e+00 -8.080314e+00 206 127 0
-7.917834e-01 1.090702e+00 -8.080340e+00 218 141 3
-8.423739e-01 9.094253e-01 -8.082264e+00 176 104 4
-1.691615e+00 1.464310e+00 -1.471820e+01 241 216 95
5.585946e+00 -4.591373e-01 -1.288059e+01 126 101 21
-2.265301e+00 1.084553e+00 -1.410841e+01 253 227 106
-2.236147e+00 9.179930e-01 -1.337269e+01 236 210 89
-1.598039e+00 3.530664e-01 -1.260303e+01 236 215 93
4.928265e+00 -1.282414e+00 -1.133226e+01 191 153 46
1.031045e+00 -7.633650e-01 -9.509350e+00 2 8 0
-2.577441e+00 7.635486e-02 -1.171267e+01 255 231 110
7.827589e-01 -1.788061e+00 -8.974389e+00 184 183 93
-2.439144e-01 -1.881129e+00 -8.499478e+00 94 95 35
-1.195487e+00 -1.522803e+00 -8.174839e+00 38 52 14
-8.260606e-01 1.045104e+00 -8.092626e+00 188 114 0
-7.150882e-01 9.207203e-01 -7.916799e+00 164 104 2
-4.310969e-01 6.708651e-01 -7.988706e+00 52 45 0
-8.232607e-01 7.034058e-01 -8.037820e+00 117 61 0
-1.267781e+00 1.438636e+00 -1.468133e+01 231 200 84
-1.331961e+00 1.288135e+00 -1.444257e+01 209 177 59
-2.014883e+00 1.321819e+00 -1.447626e+01 251 226 108
-1.413987e+00 1.048208e+00 -1.386841e+01 225 195 75
-2.393721e+00 7.687713e-01 -1.313088e+01 235 213 93
-2.034551e+00 6.181214e-01 -1.300500e+01 253 222 105
4.630712e+00 -8.819248e-01 -1.207981e+01 219 187 84
-1.666098e+00 4.512892e-01 -1.266212e+01 226 204 82
-5.975755e-01 -2.720020e-01 -7.860205e+00 23 32 4
-2.900348e+00 1.581038e-01 -1.176468e+01 246 229 97
-8.099582e-01 -6.037431e-01 -8.020993e+00 27 37 12
-7.079111e-01 -7.469704e-01 -7.971491e+00 33 45 6
1.071896e+00 -1.729004e+00 -9.123155e+00 196 193 100
-6.193606e-01 7.834202e-01 -7.968327e+00 126 83 3
-5.322488e-01 7.835718e-01 -8.032743e+00 49 23 0
-7.421061e-01 6.466503e-01 -7.983968e+00 118 70 4
-7.421061e-01 6.466503e-01 -7.983968e+00 118 70 4
-5.772738e-01 6.143049e-01 -8.028594e+00 74 44 0
-8.749065e-01 6.491311e-01 -8.094686e+00 144 89 0
-9.178899e-01 6.068471e-01 -8.132848e+00 34 23 0
-7.838295e-01 3.641060e-01 -8.052106e+00 31 48 16
-7.838295e-01 3.641060e-01 -8.052106e+00 31 48 16
-2.842376e-01 -1.245607e-01 -7.931673e+00 30 36 0
-3.837789e-01 -1.566656e-01 -7.886093e+00 30 40 5
-4.608787e-01 -2.791287e-01 -7.928965e+00 29 39 4
-8.506169e-01 -3.775235e-01 -7.921445e+00 33 46 14
-8.111360e-01 -4.104338e-01 -7.896479e+00 18 28 1
-9.623109e-01 -6.610041e-01 -8.046767e+00 21 32 0
-8.513576e-01 -8.305947e-01 -8.031982e+00 29 47 9
-2.673166e+00 -5.010475e-01 -1.047864e+01 239 214 89
-1.600400e+00 -1.343756e+00 -9.052602e+00 233 228 136
-7.160761e-01 1.211192e+00 -8.096406e+00 228 149 4
-7.550005e-01 1.063972e+00 -8.046712e+00 217 140 0
-6.684553e-01 -6.025246e-01 -7.978043e+00 34 48 12
-6.218525e-01 -7.127711e-01 -7.975842e+00 30 38 1
-9.212283e-01 -8.028049e-01 -8.019330e+00 1 15 0
1.020315e+00 -1.850985e+00 -8.841459e+00 210 207 114
-6.776292e-01 3.403280e-01 -8.029166e+00 1 5 1
-8.195142e-01 3.533624e-01 -8.099552e+00 30 50 15
-8.195142e-01 3.533624e-01 -8.099552e+00 30 50 15
4.031090e+00 -9.183266e-01 -1.151207e+01 186 156 56
-5.367511e-01 -5.771406e-01 -7.984191e+00 24 34 0
1.066280e+00 -1.013099e+00 -9.557540e+00 17 20 3
1.166627e+00 -1.490691e+00 -9.515431e+00 195 191 100
-1.612792e+00 6.725300e-01 -1.348426e+01 237 215 93
-6.119220e-01 6.215553e-01 -8.032280e+00 103 64 0
-2.773365e+00 -2.159671e-01 -1.109203e+01 247 213 89
-2.929214e+00 -3.312393e-01 -1.079302e+01 254 226 104
-2.731184e+00 -5.156202e-01 -1.041330e+01 244 209 83
-1.112159e+00 -1.297233e+00 -9.294935e+00 100 98 38
6.660586e-02 1.293086e+00 -7.830644e+00 96 78 21
-7.359287e-01 2.240835e+00 -1.653974e+01 232 214 112
-5.241063e-01 1.274127e+00 -8.084702e+00 207 124 0
-6.892966e-01 1.832724e+00 -1.569701e+01 214 177 62
-3.986039e-01 1.193395e+00 -7.832832e+00 123 77 5
-1.376108e+00 1.413547e+00 -1.464168e+01 237 200 70
-5.688345e-01 1.162458e+00 -1.446589e+01 114 90 24
-1.466624e+00 7.706052e-01 -1.341685e+01 215 178 43
-1.753610e+00 8.043968e-01 -1.333187e+01 230 189 55
-1.698375e+00 7.854205e-01 -1.345501e+01 214 175 40
-6.580312e-01 4.682752e-01 -1.290588e+01 205 163 27
-2.135542e+00 7.153596e-01 -1.301244e+01 225 190 56
-3.961305e-01 1.483814e-01 -7.689557e+00 35 39 6
-2.890566e+00 -2.631400e-01 -1.086982e+01 199 168 41
-2.890566e+00 -2.631400e-01 -1.086982e+01 199 168 41
-1.427213e+00 2.414025e+00 -1.666047e+01 235 226 130
-7.683378e-01 9.596305e-01 -8.028785e+00 177 100 4
-2.544080e+00 1.263316e+00 -1.411071e+01 215 187 68
-5.556152e-01 6.850594e-01 -8.044701e+00 63 33 0
-4.931881e-01 3.722630e-01 -1.285248e+01 198 160 28
1.327786e+00 -3.460061e-01 -9.183531e+00 4 9 0
-1.951782e-01 -1.847950e+00 -8.476385e+00 153 153 90
-1.438023e+00 1.462829e+00 -1.470801e+01 199 164 36
-9.843740e-01 1.032866e+00 -1.410865e+01 213 175 50
-1.146646e+00 6.910083e-01 -1.332824e+01 185 148 18
-2.632965e+00 9.449946e-01 -1.331881e+01 230 193 60
4.314765e+00 -5.456562e-01 -1.239226e+01 191 155 43
4.393092e+00 -6.354153e-01 -1.221653e+01 194 153 39
5.569585e-01 2.730055e+00 -1.381382e+01 7 1 5
-6.616394e-01 1.221573e+00 -8.067029e+00 189 103 0
-3.108479e+00 1.527543e-01 -1.166219e+01 241 206 76
-3.038927e+00 8.180043e-02 -1.158482e+01 236 201 73
-3.247986e+00 -8.171934e-03 -1.131097e+01 255 227 97
6.207032e-01 -1.683761e+00 -9.195913e+00 174 167 87
-5.128091e-01 1.207564e+00 -7.849517e+00 99 30 0
-1.992303e+00 1.512623e+00 -1.487967e+01 245 213 78
-8.183964e-01 6.132655e-01 -8.024210e+00 130 81 4
-1.954566e+00 2.046417e-01 -1.210530e+01 228 199 61
-2.893957e+00 2.633386e-01 -1.177355e+01 236 203 72
-1.285163e+00 8.881206e-01 -1.360995e+01 209 172 40
-1.717519e+00 -1.380438e+00 -9.134124e+00 238 232 138
-1.709798e+00 -1.193846e+00 -9.524161e+00 229 223 127
-8.018756e-01 -3.608834e-01 -8.237944e+00 1 8 0
-2.978733e+00 -5.008311e-01 -1.044972e+01 251 220 98
1.639275e-02 -2.175973e+00 -8.869257e+00 190 181 102
-1.879569e+00 8.270395e-01 -1.331047e+01 214 170 37
-3.045130e+00 -9.643645e-02 -1.131810e+01 254 226 101
6.423910e-02 4.548636e-01 -3.055209e+00 0 255 0
6.136631e-02 4.514106e-01 -3.105007e+00 255 255 0
2.865725e-02 -4.921330e-01 -3.288455e+00 255 0 0
2.898540e-02 -4.886722e-01 -3.338334e+00 255 255 0
-7.409265e-01 -4.409331e-01 -3.089898e+00 0 255 0
-7.340063e-01 -4.381219e-01 -3.139337e+00 255 255 0
-1.813749e+00 -3.290893e-01 -3.346064e+00 255 0 0
-1.798012e+00 -3.273259e-01 -3.393489e+00 255 255 0
-1.912470e+00 1.125799e+00 -3.663176e+00 0 255 0
-1.902674e+00 1.116589e+00 -3.711335e+00 255 255 0
-2.660087e+00 -1.632903e-01 -3.400850e+00 255 0 0
-2.642678e+00 -1.617560e-01 -3.447696e+00 255 255 0
