ply
format ascii 1.0
element face 0
property list uchar int vertex_indices
element vertex 940
property float x
property float y
property float z
property uchar diffuse_red
property uchar diffuse_green
property uchar diffuse_blue
end_header
-1.879192e+00 4.436519e-01 -1.171930e+01 215 203 86
-1.456361e+00 -2.098130e-01 -1.037495e+01 231 220 104
3.378969e-01 -6.698430e-01 -9.922554e+00 161 171 85
-4.496313e-01 6.970461e-01 -9.082670e+00 153 106 22
-1.857206e+00 9.194179e-02 -1.091831e+01 253 233 100
-1.857206e+00 9.194179e-02 -1.091831e+01 253 233 100
3.123192e-01 4.431178e-02 -9.877987e+00 66 74 23
2.728828e-01 2.020186e-02 -9.815492e+00 69 70 2
-1.679412e+00 -3.741751e-01 -9.991417e+00 235 212 89
-6.677330e-01 -7.985050e-01 -9.405270e+00 66 73 28
-6.083944e-01 -8.069857e-01 -9.426269e+00 73 82 29
-5.244882e-01 6.432520e-01 -9.141219e+00 121 73 0
-3.728854e-01 4.182142e-01 -9.145405e+00 50 53 6
-3.949123e-01 5.400777e-02 -9.134361e+00 13 29 3
-3.989968e-01 6.471764e-01 -9.123131e+00 50 47 2
4.625875e-02 5.429546e-01 -9.446441e+00 55 53 3
-5.325217e-01 -9.003444e-02 -9.178988e+00 13 29 2
4.867705e-01 -6.253814e-01 -1.002099e+01 190 196 96
-8.144753e-01 -6.134546e-01 -9.437664e+00 50 68 26
-5.002862e-01 5.127569e-01 -9.168202e+00 107 71 3
-5.769119e-01 4.258077e-01 -9.161698e+00 116 72 2
-5.453881e-01 3.335539e-01 -9.160297e+00 10 24 2
-5.580076e-01 1.472259e-01 -9.231650e+00 4 15 1
-4.410417e-01 -3.026047e-02 -9.099364e+00 17 33 2
1.993311e-01 -1.777121e-01 -9.819021e+00 77 76 10
-7.647169e-01 -5.365655e-01 -9.315335e+00 44 62 22
-4.066675e-01 2.180270e-01 -9.250458e+00 18 28 0
-4.900695e-01 1.730944e-01 -9.309684e+00 47 55 6
-1.655225e+00 -9.770878e-02 -1.059793e+01 244 223 95
-3.407026e-01 4.524905e-02 -9.103371e+00 18 31 0
-8.408279e-01 -2.233815e-01 -9.488105e+00 231 236 136
-5.377349e-01 -1.943268e-01 -9.133536e+00 21 41 3
-4.698378e-01 3.317636e-01 -9.206040e+00 51 58 2
-4.681419e-01 2.301813e-01 -9.240562e+00 52 60 3
6.850436e-02 -1.432325e-01 -9.785070e+00 84 86 13
3.757165e-01 -2.227883e-01 -9.752608e+00 1 6 0
-3.048107e-01 7.441824e-01 -9.059351e+00 106 82 12
-4.207845e-01 6.973043e-01 -9.068266e+00 119 82 7
-4.812931e-01 5.307181e-01 -9.175257e+00 71 42 2
-1.812450e+00 3.668622e-01 -1.140799e+01 232 216 99
1.341076e+00 -1.768625e-01 -1.127556e+01 215 203 82
-1.601444e+00 -1.429340e-01 -1.043300e+01 194 170 46
-1.633814e+00 -2.318217e-01 -1.032454e+01 235 214 87
-5.754930e-01 -8.017441e-01 -9.391731e+00 84 92 32
-8.240315e-01 -7.861549e-01 -9.357647e+00 167 169 82
-1.776600e-01 7.660128e-01 -9.073512e+00 97 80 2
-2.838141e-01 7.472718e-01 -9.040904e+00 154 125 38
-4.128402e-01 7.558363e-01 -9.073690e+00 147 89 0
-5.260358e-01 4.104092e-01 -9.175595e+00 100 65 0
-1.540820e+00 6.391925e-01 -1.200702e+01 236 217 94
-1.512738e+00 1.063379e-01 -1.107812e+01 215 196 65
-3.102093e-01 -8.220691e-01 -9.448921e+00 65 70 15
-4.046700e-01 7.448901e-01 -9.071026e+00 220 170 41
-5.275805e-01 5.353395e-01 -9.136837e+00 122 73 4
-5.419430e-01 4.579009e-01 -9.148439e+00 131 83 13
-5.710831e-01 4.468017e-01 -9.152536e+00 130 78 9
-6.227157e-01 4.446834e-01 -9.171963e+00 122 73 0
-5.101034e-01 4.215051e-01 -9.161835e+00 91 58 0
-5.724931e-01 3.486677e-01 -9.131561e+00 17 30 4
-4.692904e-01 8.839045e-04 -9.111119e+00 8 26 2
-1.383041e+00 9.320528e-03 -1.112847e+01 232 218 85
2.894074e-01 -5.724853e-01 -9.977123e+00 96 107 45
-6.243489e-01 -7.843278e-01 -9.498309e+00 52 60 13
-3.990199e-01 -8.150901e-01 -9.534362e+00 86 94 35
-6.288898e-02 6.546200e-01 -9.065276e+00 80 76 11
-6.159201e-01 4.932827e-01 -9.169087e+00 138 84 0
-4.224400e-01 4.226675e-01 -9.174324e+00 70 71 14
-6.189930e-01 4.058160e-01 -9.184323e+00 125 85 8
1.556305e+00 1.059111e-01 -1.192039e+01 216 198 70
-1.748826e+00 -5.101170e-03 -1.078134e+01 238 220 94
-5.838423e-01 -1.656787e-01 -9.174383e+00 10 28 3
-5.623583e-01 -2.104116e-01 -9.145764e+00 27 45 17
-2.464285e-01 -7.764244e-01 -9.462780e+00 159 169 98
-1.709352e-01 6.848585e-01 -9.044489e+00 26 44 4
-2.480986e-01 6.091410e-01 -8.975002e+00 29 47 7
1.514649e+00 -2.665899e-01 -1.110877e+01 247 235 128
-1.495076e+00 -3.604377e-01 -1.013516e+01 248 247 155
-3.900021e-01 -4.800196e-01 -9.370998e+00 89 91 18
-2.572512e-01 -7.482131e-01 -9.473222e+00 38 50 0
1.436454e+00 -1.033483e-01 -1.140945e+01 222 206 80
1.945425e-01 3.367730e-01 -9.611232e+00 59 59 0
1.722018e+00 -4.338575e-02 -1.164162e+01 190 155 25
-1.022672e+00 -9.469049e-02 -9.514752e+00 230 216 83
-4.330358e-01 7.188450e-01 -9.077411e+00 170 116 21
-1.494914e+00 7.984020e-01 -1.246581e+01 214 202 73
-6.010361e-01 2.419562e-01 -9.192329e+00 7 24 0
-1.589645e+00 -1.814520e-01 -1.040232e+01 239 211 85
-4.214897e-01 6.942253e-01 -9.056780e+00 121 82 10
-1.729114e-01 6.798708e-01 -9.030150e+00 16 37 0
-1.552136e+00 8.162295e-02 -1.100816e+01 200 180 45
-1.389895e+00 -6.386826e-02 -1.071842e+01 234 218 77
7.959712e-02 3.133048e-01 -9.494047e+00 65 66 0
-1.487803e+00 2.718630e-01 -1.137211e+01 231 214 72
6.733110e-02 1.714028e-01 -9.585528e+00 78 80 7
-4.011505e-01 7.265905e-01 -9.057613e+00 151 106 0
-4.810264e-01 2.649495e-01 -9.228510e+00 38 48 0
-5.271644e-01 5.673044e-01 -9.130481e+00 109 64 0
-5.911245e-01 4.182504e-01 -9.165280e+00 115 66 0
-8.960338e-01 -6.551192e-01 -9.292992e+00 220 226 128
-5.284775e-01 5.522540e-01 -9.131816e+00 114 67 0
-1.093962e+00 5.127221e-01 -1.204905e+01 203 184 55
-1.206840e+00 6.261632e-02 -1.105360e+01 215 203 87
-1.457150e+00 -1.939724e-01 -1.046826e+01 227 213 101
-8.781707e-02 7.044117e-01 -9.113164e+00 70 66 14
-1.037872e+00 2.853651e-01 -8.480442e+00 78 82 4
-1.058360e+00 1.851831e-01 -1.131619e+01 177 166 48
-1.457667e+00 -2.320430e-01 -1.038517e+01 253 253 154
5.549159e-03 -6.203590e-01 -9.796315e+00 77 83 33
-3.095046e-01 7.173742e-01 -9.062771e+00 73 65 9
2.484294e+00 3.856538e-02 -1.186975e+01 95 104 53
-1.190968e+00 4.073796e-01 -1.175555e+01 195 176 48
-1.190831e+00 4.058876e-01 -1.174139e+01 195 176 48
-1.220907e+00 8.525131e-01 -1.276520e+01 244 228 93
-3.380897e-01 -8.700024e-01 -9.461605e+00 140 150 79
-1.248075e+00 6.239861e-01 -1.217986e+01 233 215 87
-5.502459e-01 -2.350102e-01 -9.146418e+00 13 36 0
-4.054133e-01 -6.232624e-01 -9.443644e+00 59 62 5
-6.262420e-01 -1.494650e-01 -9.154522e+00 13 31 0
-5.247028e-01 3.616651e-01 -9.196687e+00 14 13 9
-1.463431e+00 2.038410e-02 -1.084634e+01 238 220 94
-1.317449e+00 -3.045524e-01 -1.028194e+01 243 247 162
5.496130e-01 -8.411220e-01 -9.542172e+00 205 217 117
-3.147809e-01 -8.561486e-01 -9.307964e+00 174 186 104
-4.171113e-01 9.108423e-01 -9.328439e+00 234 178 9
-3.026636e-01 7.432934e-01 -9.055866e+00 110 79 10
3.441880e+00 6.226049e-01 -1.469779e+01 83 85 75
-5.891038e-01 2.496887e-01 -9.180751e+00 10 22 4
-1.692686e+00 -3.823905e-02 -1.070606e+01 245 225 94
-1.710064e+00 -2.868552e-01 -1.017630e+01 206 177 47
-3.334796e-01 -7.729552e-01 -9.423765e+00 37 50 10
-2.842771e-01 7.513604e-01 -9.051013e+00 157 118 27
-1.857156e+00 6.734914e-02 -1.092481e+01 229 209 78
-1.877203e+00 1.498997e-01 -1.105851e+01 233 210 73
-1.551468e+00 8.258680e-02 -1.100825e+01 200 180 45
4.492883e-01 -7.064479e-01 -9.847930e+00 198 209 107
-1.870365e+00 -1.306575e-01 -1.048745e+01 248 224 92
3.626892e-01 -1.004231e-01 -9.855064e+00 228 234 136
-3.861272e-01 -7.765251e-01 -9.412681e+00 85 92 43
2.340229e+00 1.546974e-01 -1.212476e+01 195 182 71
1.875435e+00 3.234249e-01 -1.236660e+01 168 147 40
1.834588e+00 3.531475e-01 -1.237117e+01 217 197 68
-3.773624e-01 7.196820e-01 -9.048806e+00 120 84 11
-3.649822e-01 7.138748e-01 -9.060180e+00 90 64 0
6.084498e+00 1.655314e+00 -1.636606e+01 142 172 163
-6.825661e-01 4.030171e-01 -9.251180e+00 38 51 4
-1.295751e+00 -2.181408e-02 -1.081845e+01 217 205 88
-1.778533e+00 -1.487366e-01 -1.046255e+01 187 172 43
6.156842e+00 1.736229e+00 -1.650233e+01 227 255 251
5.916906e+00 1.687339e+00 -1.640305e+01 128 161 140
-1.574117e+00 1.539629e-01 -1.104938e+01 237 219 95
-1.882989e+00 4.442548e-03 -1.075591e+01 244 232 96
-3.000119e-01 -7.744737e-01 -9.439287e+00 40 54 18
-6.564257e-01 4.481248e-01 -9.215923e+00 135 90 0
-1.242424e+00 7.915782e-02 -1.106079e+01 236 217 96
-1.493349e+00 2.767943e-01 -1.144574e+01 234 214 91
-1.226254e+00 1.593570e-01 -1.124224e+01 229 214 88
4.848533e-01 -5.914602e-01 -1.010152e+01 185 197 110
-1.249266e+00 5.178847e-01 -1.197524e+01 216 197 69
-1.283064e+00 1.652137e-02 -1.095037e+01 224 209 88
-5.093288e-01 1.406811e+00 -1.234288e+01 97 103 58
-5.066925e-01 1.345288e+00 -1.240529e+01 13 21 0
-9.315677e-01 9.148935e-01 -1.282185e+01 191 165 44
-7.758079e-01 8.720134e-01 -1.286417e+01 215 186 68
-1.559195e+00 7.395916e-01 -1.230324e+01 197 182 80
-1.103679e+00 5.285639e-01 -1.204108e+01 228 195 79
-8.556297e-01 3.981489e-01 -1.183050e+01 179 159 45
-8.556297e-01 3.981489e-01 -1.183050e+01 179 159 45
2.187678e+00 -2.937325e-01 -1.123510e+01 192 159 60
1.969862e+00 -3.236000e-01 -1.109480e+01 191 161 63
-1.098941e+00 1.552769e-01 -1.128259e+01 191 168 55
1.756917e+00 -5.231883e-01 -1.057739e+01 240 219 121
1.111091e-01 -2.267396e-01 -9.745498e+00 88 84 13
-3.938258e-01 -8.454121e-01 -9.411780e+00 115 121 59
-3.360879e-01 -8.635453e-01 -9.385122e+00 157 159 89
-2.845174e-01 7.508892e-01 -9.047866e+00 160 126 36
-4.886896e-01 1.333165e+00 -1.250060e+01 134 142 104
-7.201128e-01 5.407268e-01 -9.465730e+00 151 113 42
-8.871962e-01 1.163204e+00 -1.334095e+01 250 228 109
-8.975738e-01 1.151847e+00 -1.329872e+01 255 233 113
2.542967e+00 -1.489620e-01 -1.158162e+01 225 189 92
-7.070239e-01 4.607740e-01 -1.197327e+01 204 179 60
2.372366e+00 -2.946567e-01 -1.133975e+01 213 179 73
-1.738634e+00 5.551107e-01 -1.190486e+01 216 204 90
1.938979e+00 -3.706075e-01 -1.101315e+01 193 165 68
1.903732e+00 -4.719476e-01 -1.076862e+01 189 162 62
-1.536490e+00 1.058393e-01 -1.099013e+01 253 228 107
-2.617758e-02 -3.334658e-01 -9.680482e+00 82 79 10
-1.544276e+00 -1.322773e-01 -1.057118e+01 236 211 85
-2.865065e-01 7.660869e-01 -9.054709e+00 142 96 0
2.382115e-01 6.814507e-01 -9.262212e+00 43 50 15
-7.845267e-02 4.183798e-01 -8.748932e+00 25 34 4
-5.230486e-01 1.384981e+00 -1.238021e+01 28 36 0
-5.679200e-01 4.455277e-01 -9.152218e+00 128 79 0
-6.549801e-01 4.540760e-01 -9.208202e+00 148 85 0
-2.965901e-01 1.687300e-01 -9.124120e+00 37 47 7
2.812120e+00 -5.957090e-02 -1.187704e+01 144 116 36
-1.536501e+00 5.541920e-01 -1.188857e+01 242 216 93
4.312732e-01 -1.000167e-01 -9.708800e+00 28 32 5
-1.373758e+00 2.822432e-01 -1.142098e+01 255 229 110
2.250182e+00 -6.089532e-01 -1.066808e+01 198 162 50
1.781872e+00 -6.092386e-01 -1.051158e+01 213 195 83
-7.441923e-01 -2.760115e-01 -9.237162e+00 49 61 24
4.207187e-01 -6.382415e-01 -1.001459e+01 180 178 89
-7.282256e-01 -5.051224e-01 -9.236369e+00 34 48 13
1.666782e-01 -8.740159e-01 -9.489081e+00 193 194 101
-5.829183e-01 6.798618e-01 -9.208715e+00 206 127 0
-6.062351e-01 6.502936e-01 -9.205176e+00 218 141 3
-6.321820e-01 5.568009e-01 -9.202692e+00 176 104 4
-1.047760e+00 9.256739e-01 -1.286386e+01 241 216 95
2.930689e+00 -7.380691e-02 -1.185051e+01 126 101 21
-1.355537e+00 7.095981e-01 -1.252225e+01 253 227 106
-1.337511e+00 6.101597e-01 -1.209531e+01 236 210 89
-9.958745e-01 3.020921e-01 -1.160797e+01 236 215 93
2.419696e+00 -5.155423e-01 -1.086910e+01 191 153 46
3.539028e-01 -2.692030e-01 -9.956587e+00 2 8 0
-1.506530e+00 1.480256e-01 -1.114677e+01 255 231 110
2.249527e-01 -7.950089e-01 -9.678649e+00 184 183 93
-3.000581e-01 -8.495280e-01 -9.449446e+00 94 95 35
-7.916618e-01 -6.633800e-01 -9.264264e+00 38 52 14
-6.242663e-01 6.267805e-01 -9.214957e+00 188 114 0
-5.685860e-01 5.629848e-01 -9.122742e+00 164 104 2
-4.232619e-01 4.410083e-01 -9.160797e+00 52 45 0
-6.221693e-01 4.508582e-01 -9.181249e+00 117 61 0
-8.194403e-01 9.124458e-01 -1.279890e+01 231 200 84
-8.528118e-01 8.258051e-01 -1.268220e+01 209 177 59
-1.222143e+00 8.439105e-01 -1.273139e+01 251 226 108
-8.945366e-01 6.954935e-01 -1.240275e+01 225 195 75
-1.419140e+00 5.262922e-01 -1.194137e+01 235 213 93
-1.226007e+00 4.422616e-01 -1.183466e+01 253 222 105
2.313251e+00 -3.076253e-01 -1.132154e+01 219 187 84
-1.029861e+00 3.595033e-01 -1.169142e+01 226 204 82
-5.005479e-01 -3.312483e-02 -9.102727e+00 23 32 4
-1.676731e+00 1.887164e-01 -1.117636e+01 246 229 97
-6.063525e-01 -1.993911e-01 -9.180985e+00 27 37 12
-5.541699e-01 -2.707672e-01 -9.153003e+00 33 45 6
3.765190e-01 -7.646983e-01 -9.755899e+00 196 193 100
-5.162843e-01 4.967151e-01 -9.159096e+00 126 83 3
-4.759840e-01 4.959721e-01 -9.178650e+00 49 23 0
-5.782937e-01 4.262172e-01 -9.161226e+00 118 70 4
-5.805832e-01 4.252345e-01 -9.155309e+00 118 70 4
-5.000988e-01 4.082796e-01 -9.171486e+00 74 44 0
-6.470184e-01 4.268658e-01 -9.209349e+00 144 89 0
-6.666170e-01 4.059746e-01 -9.235952e+00 34 23 0
-5.992131e-01 2.841968e-01 -9.190260e+00 31 48 16
-5.992131e-01 2.841968e-01 -9.190260e+00 31 48 16
-3.462546e-01 4.283152e-02 -9.129757e+00 30 36 0
-3.938293e-01 2.613258e-02 -9.114557e+00 30 40 5
-4.363810e-01 -3.343638e-02 -9.121915e+00 29 39 4
-6.263781e-01 -8.735393e-02 -9.134431e+00 33 46 14
-6.065076e-01 -1.036417e-01 -9.121944e+00 18 28 1
-6.814260e-01 -2.292912e-01 -9.192225e+00 21 32 0
-6.231484e-01 -3.141076e-01 -9.191865e+00 29 47 9
-1.549631e+00 -1.600084e-01 -1.048374e+01 239 214 89
-9.889633e-01 -5.883176e-01 -9.767296e+00 233 228 136
-5.689809e-01 7.113879e-01 -9.216382e+00 228 149 4
-5.889278e-01 6.356575e-01 -9.187337e+00 217 140 0
-5.355896e-01 -1.984015e-01 -9.155533e+00 34 48 12
-5.089529e-01 -2.538281e-01 -9.162862e+00 30 38 1
-6.602449e-01 -2.998872e-01 -9.178052e+00 1 15 0
3.348161e-01 -8.214489e-01 -9.589908e+00 210 207 114
-5.458200e-01 2.729366e-01 -9.178711e+00 1 5 1
-6.171205e-01 2.785099e-01 -9.213301e+00 30 50 15
-6.163191e-01 2.788680e-01 -9.216158e+00 30 50 15
1.972540e+00 -3.307579e-01 -1.100968e+01 186 156 56
-4.669361e-01 -1.853211e-01 -9.166628e+00 24 34 0
3.693407e-01 -3.955212e-01 -9.970438e+00 17 20 3
4.322080e-01 -6.438062e-01 -9.966707e+00 195 191 100
-1.002126e+00 4.827491e-01 -1.212974e+01 237 215 93
-5.147983e-01 4.140375e-01 -9.180111e+00 103 64 0
-1.604680e+00 -8.353655e-03 -1.080610e+01 247 213 89
-1.684428e+00 -7.196896e-02 -1.065008e+01 254 226 104
-1.577646e+00 -1.648192e-01 -1.043801e+01 244 209 83
-7.445138e-01 -5.521886e-01 -9.843521e+00 100 98 38
-1.794149e-01 7.555111e-01 -9.071051e+00 96 78 21
-5.192635e-01 1.392563e+00 -1.396191e+01 232 214 112
-4.744036e-01 7.430863e-01 -9.203290e+00 207 124 0
-5.015669e-01 1.145432e+00 -1.340459e+01 214 177 62
-4.129398e-01 7.007215e-01 -9.075263e+00 123 77 5
-8.768129e-01 8.991087e-01 -1.280508e+01 237 200 70
-4.374796e-01 7.684382e-01 -1.272057e+01 114 90 24
-9.249701e-01 5.357072e-01 -1.207712e+01 215 178 43
-1.078037e+00 5.520089e-01 -1.204622e+01 230 189 55
-1.046259e+00 5.413098e-01 -1.215062e+01 214 175 40
-4.958491e-01 3.776374e-01 -1.180096e+01 205 163 27
-1.280821e+00 4.986214e-01 -1.186686e+01 225 190 56
-4.063680e-01 1.767469e-01 -9.008081e+00 35 39 6
-1.664669e+00 -3.467826e-02 -1.068651e+01 199 168 41
-1.664669e+00 -3.467826e-02 -1.068651e+01 199 168 41
-9.058248e-01 1.488040e+00 -1.403275e+01 235 226 130
-5.955382e-01 5.820880e-01 -9.177020e+00 177 100 4
-1.507741e+00 8.026472e-01 -1.250500e+01 215 187 68
-4.868822e-01 4.464159e-01 -9.185882e+00 63 33 0
-4.082251e-01 3.276728e-01 -1.177159e+01 198 160 28
5.048870e-01 -5.688993e-02 -9.791255e+00 4 9 0
-2.817847e-01 -8.261325e-01 -9.418729e+00 153 153 90
-9.139608e-01 9.200664e-01 -1.276763e+01 199 164 36
-6.652115e-01 6.890858e-01 -1.249122e+01 213 175 50
-7.538979e-01 4.960884e-01 -1.204193e+01 185 148 18
-1.550780e+00 6.210772e-01 -1.206558e+01 230 193 60
2.187407e+00 -1.288369e-01 -1.154954e+01 191 155 43
2.226397e+00 -1.773901e-01 -1.145171e+01 194 153 39
1.474440e-01 1.610619e+00 -1.229808e+01 7 1 5
-5.437681e-01 7.155749e-01 -9.194422e+00 189 103 0
-1.787736e+00 1.840041e-01 -1.112469e+01 241 206 76
-1.749652e+00 1.469608e-01 -1.108035e+01 236 201 73
-1.858365e+00 9.657753e-02 -1.093561e+01 255 227 97
1.447405e-01 -7.430417e-01 -9.795133e+00 174 167 87
-4.710090e-01 7.074634e-01 -9.082774e+00 99 30 0
-1.211725e+00 9.526228e-01 -1.295222e+01 245 213 78
-6.183183e-01 4.081480e-01 -9.176548e+00 130 81 4
-1.180677e+00 2.228068e-01 -1.135694e+01 228 199 61
-1.675358e+00 2.443168e-01 -1.118089e+01 236 203 72
-8.279604e-01 6.031900e-01 -1.220323e+01 209 172 40
-1.052456e+00 -5.972792e-01 -9.757700e+00 238 232 138
-1.048225e+00 -4.969401e-01 -9.947335e+00 229 223 127
-6.018064e-01 -7.777190e-02 -9.289795e+00 1 8 0
-1.708856e+00 -1.620227e-01 -1.047401e+01 251 220 98
-1.642659e-01 -9.980016e-01 -9.629601e+00 190 181 102
-1.145424e+00 5.629316e-01 -1.203449e+01 214 170 37
-1.749951e+00 5.238996e-02 -1.093472e+01 254 226 101
-7.962465e-01 8.361978e+00 -3.548638e+01 57 69 27
-2.907987e+00 1.010742e+01 -3.834325e+01 76 86 56
-1.719145e-01 1.004341e+01 -3.952308e+01 0 6 0
-2.618436e+00 9.592000e+00 -3.857027e+01 3 15 0
-2.496460e+00 9.366355e+00 -3.880953e+01 96 106 53
-5.457134e+00 4.059950e+00 -2.693018e+01 87 95 26
3.673428e+00 2.051665e+00 -1.650720e+01 223 214 109
-5.189589e+00 3.598159e+00 -2.624887e+01 88 104 37
-4.979005e+00 3.119908e+00 -2.591040e+01 110 128 66
1.982229e+00 1.201447e+01 -4.565796e+01 106 122 75
-2.449543e+00 9.640404e+00 -3.869323e+01 131 141 104
-3.437362e+00 9.330715e+00 -3.877893e+01 84 100 51
-3.986902e+00 4.971865e+00 -2.869849e+01 44 53 0
-2.912225e+00 9.184543e+00 -3.852066e+01 91 106 50
6.165754e+00 1.991003e+01 -5.007290e+01 189 214 132
1.026297e+01 2.013386e+01 -5.111792e+01 217 233 143
3.851054e+00 2.047065e+00 -1.660700e+01 215 203 93
2.891697e+00 1.210064e+00 -1.449460e+01 18 23 4
2.441892e+00 7.704579e-01 -1.346371e+01 28 35 11
3.442719e+00 6.760988e-01 -1.367101e+01 110 119 88
3.063187e+00 5.832149e-01 -1.323456e+01 9 20 0
3.005486e+00 5.071323e-01 -1.307293e+01 4 7 2
2.575465e+00 2.873133e-01 -1.258804e+01 175 160 47
2.468869e+00 2.288315e-01 -1.235936e+01 147 131 33
2.296198e+00 6.193660e-01 -1.308751e+01 57 57 5
2.158868e+00 6.016838e-01 -1.301079e+01 193 187 97
8.016541e+00 1.951969e+01 -4.966163e+01 184 202 126
2.600125e+00 3.819712e-01 -1.272213e+01 112 99 3
2.823542e+00 3.301055e-01 -1.271156e+01 124 109 17
8.090181e+00 1.913818e+01 -4.964805e+01 82 98 23
2.478491e+00 7.123093e-01 -1.332833e+01 7 10 1
3.882781e+00 1.888200e+00 -1.627835e+01 171 160 55
1.362651e+00 2.110236e+01 -5.106079e+01 173 207 126
2.520503e+01 1.631132e+01 -4.533146e+01 162 152 98
1.076626e+01 2.078014e+01 -5.305433e+01 151 169 82
2.276580e+00 1.531480e+01 -4.233966e+01 163 173 79
-4.972709e-02 1.536503e+01 -4.449613e+01 162 159 116
-1.645952e+00 1.623904e+01 -4.639302e+01 2 9 0
-2.530848e+00 1.256398e+01 -3.843343e+01 117 126 103
-2.530848e+00 1.256398e+01 -3.843343e+01 117 126 103
-1.355217e+00 1.589660e+01 -4.734824e+01 150 159 127
-3.166293e+00 1.136844e+01 -3.831768e+01 70 91 33
-3.066758e+00 1.036561e+01 -3.751843e+01 78 96 52
-2.833446e+00 1.040082e+01 -3.899535e+01 4 13 0
3.603767e+00 2.034404e+01 -5.014840e+01 189 219 139
1.452057e+00 1.344814e+01 -3.786761e+01 56 67 0
1.452057e+00 1.344814e+01 -3.786761e+01 56 67 0
2.402787e+00 1.535237e+01 -4.279819e+01 123 129 25
-2.658439e+00 1.385454e+01 -3.874844e+01 84 85 9
-1.535618e+00 1.590869e+01 -4.505218e+01 64 70 21
-2.199575e+00 1.502820e+01 -4.384149e+01 18 32 0
-1.479753e+00 1.596234e+01 -4.713450e+01 8 21 0
-2.565196e+00 1.239987e+01 -3.850118e+01 7 19 1
-1.529952e+00 1.554590e+01 -4.705290e+01 1 8 0
-1.529952e+00 1.554590e+01 -4.705290e+01 1 8 0
-1.842754e+00 1.503531e+01 -4.770773e+01 156 166 109
-3.092661e+00 1.137593e+01 -3.878776e+01 13 31 0
-2.189203e+00 1.404150e+01 -4.301075e+01 159 182 130
-2.189203e+00 1.404150e+01 -4.301075e+01 159 182 130
-2.596137e+00 1.205227e+01 -3.828729e+01 157 170 126
9.495625e+00 4.375643e+00 -2.211769e+01 4 14 0
-2.945419e+00 1.035831e+01 -3.928207e+01 74 86 54
1.400453e+01 6.062152e+00 -2.615624e+01 236 254 244
-3.188412e+00 8.780033e+00 -3.800803e+01 87 107 54
5.485495e+00 1.213347e+00 -1.523470e+01 68 98 73
-1.431984e+00 1.601972e+01 -4.608710e+01 5 14 0
-1.939375e+00 1.532260e+01 -4.447789e+01 159 171 115
-2.283406e+00 1.786105e+01 -4.585206e+01 16 28 3
-8.923132e-01 1.634586e+01 -4.315750e+01 12 16 0
-1.950492e+00 1.393113e+01 -3.835422e+01 255 255 189
-2.871344e+00 1.007140e+01 -3.721321e+01 1 14 5
-3.141843e+00 9.758853e+00 -3.861482e+01 1 7 1
-2.234769e+00 1.467216e+01 -4.148893e+01 17 20 0
-2.420110e+00 1.360036e+01 -4.135177e+01 2 12 4
-5.052588e-01 1.410463e+00 -1.235814e+01 97 103 58
-1.246453e+00 -2.467215e-02 -1.083355e+01 255 250 150
1.836731e+01 1.747812e+00 -3.035147e+01 72 103 68
3.646152e+00 -9.214403e-02 -1.206548e+01 123 97 10
2.944483e+00 -9.923345e-02 -1.182241e+01 141 110 27
3.492844e+00 -2.331610e-01 -1.176203e+01 132 103 9
-1.163696e+00 6.107988e-01 -1.214533e+01 207 176 59
2.844555e+00 -4.974366e-01 -1.103895e+01 196 163 56
2.880261e+01 9.195450e+00 -3.485916e+01 152 204 166
3.384549e+00 -3.833486e-02 -1.203646e+01 130 106 19
3.384549e+00 -3.833486e-02 -1.203646e+01 130 106 19
3.582460e+00 -1.244529e-01 -1.206145e+01 190 165 66
3.582460e+00 -1.244529e-01 -1.206145e+01 190 165 66
3.286749e+00 -1.735621e-01 -1.172585e+01 116 85 3
3.254280e+00 -7.092815e-02 -1.195133e+01 204 181 86
2.481386e+00 -5.398729e-01 -1.073560e+01 195 158 51
2.660033e+01 7.927218e+00 -3.151500e+01 159 216 175
3.135142e+00 -1.316427e-01 -1.181848e+01 120 92 10
-5.788740e-01 -1.589020e-01 -9.164453e+00 18 28 1
-1.356556e+00 3.373964e-02 -1.095773e+01 235 210 91
-1.210795e+00 1.317689e+00 -1.455912e+01 156 152 63
-1.658634e+00 -8.077813e-02 -1.066307e+01 254 220 100
-2.416700e-01 -6.550365e-01 -9.501380e+00 142 138 67
-1.235908e+00 1.046901e+00 -1.254218e+01 239 217 97
-4.555989e-01 6.612092e-01 -9.080857e+00 84 49 0
-1.669396e+00 1.460458e-01 -1.109782e+01 228 198 68
-1.313751e+00 3.431523e-01 -1.158946e+01 253 223 89
-1.679395e+00 -3.665939e-01 -9.982777e+00 242 211 87
-5.013982e-01 8.193679e-01 -1.272644e+01 208 176 63
-1.356689e+00 6.642356e-01 -1.220865e+01 255 226 90
-9.603107e-01 5.071143e-01 -1.201367e+01 248 212 76
-1.570248e+00 5.372826e-01 -1.188132e+01 244 207 74
-1.451130e+00 2.045174e-01 -1.126324e+01 255 224 91
1.705929e-01 1.545889e+00 -1.221210e+01 87 82 45
-1.577205e-01 9.838581e-01 -1.240535e+01 154 147 76
-1.209256e+00 9.470801e-01 -1.289490e+01 245 213 78
2.402094e-01 -8.044872e-01 -9.635152e+00 201 194 106
7.343745e-01 -6.127754e-01 -1.009864e+01 230 222 131
-1.491912e+00 -2.230392e-01 -1.040025e+01 244 218 92
-1.003239e+00 4.554243e-01 -1.196867e+01 243 209 73
-1.373760e+00 3.286777e-01 -7.701037e+00 206 165 49
4.424957e-01 2.235708e-02 -9.886632e+00 241 232 144
-2.458901e-01 7.412191e-01 -9.034655e+00 128 106 29
-3.553826e-01 7.305216e-01 -9.069631e+00 126 80 7
-4.054292e-01 7.076981e-01 -9.058479e+00 133 79 10
1.549269e-01 1.722005e+00 -1.233413e+01 119 120 64
3.934675e-02 2.735057e+00 -1.675526e+01 133 123 44
-3.796500e-01 1.239580e+00 -1.219779e+01 32 31 10
-8.257817e-01 1.218734e+00 -1.345020e+01 254 222 93
2.422522e+00 -1.922802e-01 -1.144621e+01 197 159 58
-5.201946e-01 6.578298e-02 -9.289288e+00 25 31 4
2.314919e+00 -4.702620e-01 -1.081213e+01 189 159 47
-1.141122e+00 1.257142e-01 -1.111813e+01 191 167 45
-1.571090e+00 -2.012624e-01 -1.039523e+01 252 218 92
-1.611030e+00 -2.560656e-01 -1.028960e+01 249 215 92
-3.254646e-01 7.301590e-01 -9.055300e+00 95 59 0
1.787594e-01 1.668256e+00 -1.234597e+01 129 126 78
5.920844e-02 2.767007e+00 -1.670164e+01 241 230 142
6.081797e+00 9.312969e-02 -1.626833e+01 124 99 16
3.003971e+00 -1.125284e-01 -1.196862e+01 187 156 58
2.775530e+00 -1.409258e-01 -1.176213e+01 186 152 44
-7.524617e-02 4.851162e-01 -1.219195e+01 163 129 17
1.912960e+00 -4.183896e-01 -1.084426e+01 237 217 123
-1.614500e+00 -2.417535e-01 -1.031387e+01 232 198 75
-1.663219e+00 -3.692048e-01 -1.003887e+01 241 216 91
-5.211976e-01 7.580063e-01 -9.171239e+00 238 153 7
-6.256550e-01 5.666977e-01 -9.179950e+00 187 104 3
-6.962266e-01 5.085504e-01 -9.343664e+00 170 98 0
-2.813414e-02 1.032201e+00 -1.234990e+01 65 62 3
-2.813414e-02 1.032201e+00 -1.234990e+01 65 62 3
1.901371e-02 9.480797e-01 -1.239440e+01 66 67 5
2.639318e-02 9.497914e-01 -1.241503e+01 66 67 5
-1.108843e+00 2.752881e-01 -8.930714e+00 29 21 2
-3.937641e-01 6.243033e-01 -1.243353e+01 144 114 0
3.545662e-01 -2.729920e-01 -9.948684e+00 4 2 0
-1.165263e+00 9.055118e-02 -1.110678e+01 194 171 48
-6.803363e-01 4.724589e-01 -9.256146e+00 164 90 0
-7.061088e-01 3.908173e-01 -9.222389e+00 42 47 7
-1.065087e+00 1.047325e+00 -1.304956e+01 246 215 91
-3.087442e-01 3.770334e-01 -1.192425e+01 212 173 37
2.184578e+00 -4.114836e-01 -1.088579e+01 207 180 67
-1.316229e+00 2.979682e-01 -1.150828e+01 214 183 56
-5.479868e-01 -4.322685e-01 -9.214705e+00 49 55 17
-8.251478e-01 -7.767867e-01 -9.446429e+00 163 155 82
-6.416660e-01 5.445770e-01 -9.202940e+00 174 94 0
-8.236679e-02 1.004781e+00 -1.239648e+01 54 61 15
2.791110e+00 -4.343660e-01 -1.127150e+01 211 181 69
-1.235573e+00 4.368350e-01 -1.178171e+01 252 222 92
-1.476181e+00 2.620232e-01 -1.126529e+01 247 214 88
-1.341779e+00 -2.184101e-03 -1.083461e+01 244 215 88
-1.389101e+00 -6.216278e-02 -1.075529e+01 243 214 84
-6.793617e-01 4.430370e-01 -9.252133e+00 168 103 12
-1.212974e-01 1.077800e+00 -1.238521e+01 147 143 70
-1.212974e-01 1.077800e+00 -1.238521e+01 147 143 70
-5.272900e-01 2.741038e-01 -9.236900e+00 4 6 0
-1.334565e+00 -5.300203e-02 -1.073834e+01 232 202 84
2.581846e-01 -8.042272e-01 -9.578996e+00 200 194 106
-8.705608e-01 -5.671573e-01 -9.840655e+00 218 209 112
-8.362025e-01 -7.586212e-01 -9.509815e+00 166 159 79
-7.219634e-01 4.749060e-01 -9.508181e+00 162 157 76
-4.797246e-01 2.478413e-01 -9.241489e+00 64 62 10
-6.554731e-01 2.395292e-01 -9.246954e+00 18 31 1
-1.273792e+00 1.002099e-02 -1.090703e+01 225 199 75
-7.496779e-01 -2.734964e-01 -9.575507e+00 61 70 27
-6.239855e-01 -3.120298e-01 -9.176862e+00 35 46 17
-5.558838e-01 7.612532e-01 -9.213347e+00 195 103 2
-7.150253e-01 -4.652001e-01 -9.215160e+00 36 47 17
-1.183110e-01 9.168627e-01 -1.247364e+01 153 146 66
-4.122083e-01 6.108236e-01 -1.249681e+01 168 131 13
-5.452084e-01 3.462511e-01 -9.261089e+00 9 18 0
1.456464e-01 -8.560059e-01 -9.460278e+00 200 194 106
-6.597532e-01 5.397439e-01 -9.352876e+00 186 107 2
-6.484500e-01 3.836992e-01 -9.217469e+00 27 31 7
-2.551742e-01 7.358976e-01 -1.235029e+01 25 18 1
-3.189913e-01 9.230277e-01 -1.236319e+01 30 29 0
-6.405620e-01 5.019858e-01 -9.188126e+00 176 100 6
7.885573e+00 8.372216e+00 -2.847706e+01 53 60 8
5.892655e+00 6.531171e+00 -2.509730e+01 54 59 41
-1.582959e-01 1.232764e+00 -1.224630e+01 13 17 0
-1.582959e-01 1.232764e+00 -1.224630e+01 13 17 0
4.748429e-01 8.748425e-01 -1.229442e+01 91 89 12
4.696239e-01 8.748665e-01 -1.228336e+01 91 89 12
3.190709e+00 -5.557248e-01 -1.101155e+01 202 173 56
-2.017473e-01 3.886256e-01 -1.197320e+01 183 146 6
-8.870176e-01 3.940919e-01 -1.179894e+01 236 215 90
-1.018203e+00 2.467377e-01 -1.144955e+01 215 186 66
-1.606123e+00 -1.781754e-01 -1.043407e+01 198 166 47
-7.143246e-01 2.850340e-01 -9.261106e+00 25 42 9
-1.590356e+00 -2.072549e-01 -1.038921e+01 228 201 70
-6.884103e-01 4.076021e-01 -9.283776e+00 36 44 5
3.423838e-01 9.047578e-01 -1.231737e+01 92 90 16
3.126385e+00 -5.582223e-01 -1.101265e+01 185 155 40
2.425671e+00 -7.940386e-01 -1.035331e+01 191 170 53
1.815255e-01 9.487035e-01 -1.234213e+01 113 113 41
4.520325e-01 8.771965e-01 -1.230127e+01 90 88 11
4.520325e-01 8.771965e-01 -1.230127e+01 90 88 11
-1.456844e-01 8.890582e-01 -1.254037e+01 140 140 72
-1.628804e-01 8.852391e-01 -1.249543e+01 140 140 72
1.215231e-01 6.011592e-01 -1.250634e+01 107 87 21
1.324222e-01 4.990096e-01 -1.230831e+01 124 97 0
-1.561466e+00 -2.011043e-01 -1.041910e+01 246 222 88
2.690697e-01 1.703732e+00 -1.240965e+01 4 6 0
2.682063e-01 1.570343e+00 -1.224366e+01 3 3 9
-6.235505e-01 4.491429e-01 -9.180478e+00 101 43 1
3.805527e-01 8.366533e-01 -1.230307e+01 140 138 61
4.142586e+00 -3.788709e-01 -1.164812e+01 96 84 2
3.435491e-01 5.154808e-01 -1.239925e+01 94 74 4
-1.611174e+00 2.591855e-02 -1.084693e+01 197 173 46
-7.004571e-01 4.286246e-01 -9.289071e+00 39 30 0
3.581062e-02 1.040490e+00 -1.234169e+01 150 153 81
1.462502e-01 1.013200e+00 -1.232434e+01 153 155 77
8.001095e-02 9.736698e-01 -1.236032e+01 43 53 7
8.001095e-02 9.736698e-01 -1.236032e+01 43 53 7
-9.242010e-01 3.267993e-01 -1.163309e+01 163 136 18
-7.304332e-01 -3.060120e-01 -9.234597e+00 19 32 1
-7.214124e-01 -3.512107e-01 -9.235764e+00 24 38 5
-1.672606e+00 -1.741570e-01 -1.045075e+01 237 209 86
-1.184579e-01 5.218556e-01 -1.229355e+01 155 126 7
-4.770795e-02 9.622730e-01 -1.242517e+01 149 159 96
2.134509e+01 3.363906e+00 -3.049782e+01 150 151 47
2.500182e+01 1.629275e+01 -4.415715e+01 146 96 53
2.055674e+01 2.706508e+00 -2.916633e+01 162 129 0
2.453281e+01 1.596765e+01 -4.463022e+01 175 147 97
2.503272e+01 1.587133e+01 -4.466642e+01 129 102 51
2.335866e+01 1.651789e+01 -4.427365e+01 173 157 98
2.678392e+01 1.645726e+01 -4.492347e+01 168 145 95
2.678392e+01 1.645726e+01 -4.492347e+01 168 145 95
2.678392e+01 1.645726e+01 -4.492347e+01 168 145 95
2.406584e+01 1.598569e+01 -4.484571e+01 146 121 64
-4.104970e-01 5.881455e-01 -8.450475e+00 149 159 95
2.043341e+01 2.796804e+00 -2.928223e+01 193 170 22
2.662165e+01 1.541844e+01 -4.392366e+01 158 151 113
-6.838319e-01 4.175585e-01 -9.254622e+00 55 33 0
1.397876e-01 -1.903498e-01 -8.544705e+00 189 164 56
2.560221e+01 2.419488e+00 -3.133992e+01 193 180 27
1.623855e+01 5.576334e-01 -1.953028e+01 127 135 87
2.486363e-01 9.292340e-01 -1.232336e+01 108 104 33
-7.096918e-01 2.710536e-01 -9.267344e+00 23 37 1
3.325878e+00 -4.965374e-01 -1.121677e+01 201 171 57
2.288362e+00 -6.227175e-01 -1.064373e+01 183 151 38
2.494038e+00 -7.811175e-01 -1.036499e+01 191 169 52
-2.007979e-02 1.032595e+00 -1.234171e+01 54 62 2
3.955316e-01 8.876686e-01 -1.229104e+01 88 86 11
4.051720e-01 8.606004e-01 -1.230362e+01 134 132 55
4.748645e+00 -2.540412e-01 -1.215138e+01 186 171 80
4.580830e+00 -2.567761e-01 -1.221945e+01 115 96 3
-8.562854e-01 4.235995e-01 -1.003450e+01 21 19 3
3.542325e+00 -3.753197e-01 -1.157655e+01 195 168 53
-3.870216e-01 6.605317e-01 -1.269809e+01 151 123 0
-1.158099e-01 4.604402e-01 -1.216019e+01 156 125 0
3.446601e+00 -7.245481e-01 -1.099437e+01 172 147 28
5.236315e-02 -5.549162e-01 -8.623446e+00 214 213 119
-6.603457e-01 3.870960e-01 -9.213393e+00 27 32 8
3.153982e+00 -2.880178e-01 -1.119638e+01 177 152 51
-5.445181e-01 6.900050e-01 -1.261060e+01 172 139 24
-7.695736e-01 -5.654546e-01 -9.832745e+00 126 124 51
3.935363e+00 -3.320981e-01 -1.163584e+01 119 107 20
2.271292e-01 1.664529e+00 -1.229984e+01 4 6 0
3.017549e-01 1.727011e+00 -1.248520e+01 4 6 0
1.580061e+01 5.086762e-01 -1.892024e+01 27 33 1
2.338561e+01 1.842016e+00 -2.928333e+01 134 121 1
-4.367319e-01 1.431049e+00 -1.265127e+01 26 27 0
5.353743e-01 8.413617e-01 -1.248177e+01 138 136 59
4.447763e+00 -3.320197e-01 -1.184370e+01 185 173 87
-4.150561e-02 5.355378e-01 -1.227712e+01 116 90 0
6.228739e-02 4.818592e-01 -1.242303e+01 166 136 9
-7.997579e-01 -4.844095e-01 -9.375303e+00 26 42 5
-4.243390e-01 7.368754e-01 -9.031474e+00 224 166 22
6.240754e-02 1.383050e+00 -1.218168e+01 74 83 38
1.578135e+01 6.979908e-01 -1.913808e+01 145 159 100
4.118034e+00 -4.411335e-01 -1.169587e+01 203 179 70
-1.769786e-01 4.812574e-01 -1.212661e+01 172 142 9
-6.033282e-01 3.899217e-02 -9.401742e+00 14 27 1
1.980337e+00 -7.510524e-01 -1.045974e+01 205 179 58
-2.859708e-01 8.758827e-01 -1.272383e+01 23 22 1
4.757075e-01 -4.851738e-01 -9.615586e+00 225 226 133
-5.058735e-01 9.532017e-01 -1.105553e+01 15 18 0
-3.266427e-01 7.211803e-01 -9.081362e+00 103 70 0
2.164654e-01 1.718708e+00 -1.241726e+01 113 113 67
9.351511e-01 1.482171e+00 -1.214981e+01 108 115 72
-6.198746e-01 4.957197e-01 -9.149150e+00 141 74 9
-1.068456e-01 1.204102e+00 -1.225480e+01 27 31 8
-1.342761e-01 1.210837e+00 -1.226025e+01 28 31 10
5.351973e-01 6.969257e-01 -1.209472e+01 131 126 33
3.309067e+00 -4.866648e-01 -1.121386e+01 207 166 53
6.047093e-01 5.029674e-01 -1.199370e+01 161 144 65
4.577035e-01 5.598666e-01 -1.211500e+01 94 79 2
-7.186752e-01 2.898403e-01 -9.282080e+00 27 37 12
5.125314e-01 4.708669e-01 -1.197299e+01 142 132 35
5.138787e-01 4.414511e-01 -1.195870e+01 133 123 4
2.988512e+00 -5.628024e-01 -1.094282e+01 224 184 73
5.263019e-01 4.149162e-01 -1.192745e+01 177 140 37
3.732411e+00 -9.821296e-01 -1.026708e+01 75 58 4
3.121955e-01 5.504367e-01 -1.238045e+01 75 56 20
3.749120e-01 5.074001e-01 -1.238418e+01 79 52 0
4.849749e-01 3.263565e-01 -1.197927e+01 172 126 32
-4.249861e-01 6.715756e-01 -1.230518e+01 116 92 0
3.692954e-01 3.272758e-01 -1.199576e+01 127 77 2
4.012304e-01 3.249713e-01 -1.204211e+01 127 77 2
3.435174e-01 3.789215e-01 -1.223821e+01 130 90 0
3.403515e+00 -1.028586e+00 -1.043444e+01 182 145 31
-6.415319e-01 6.140125e-01 -1.233224e+01 188 148 17
-7.431554e-01 1.775986e-01 -9.605685e+00 27 38 8
-3.884068e-01 3.133030e-01 -1.183082e+01 189 163 45
-8.351253e-01 1.516572e-01 -9.573391e+00 43 50 16
-5.150226e-01 3.511337e-01 -1.178248e+01 182 154 35
-7.656234e-01 4.632382e-01 -1.195784e+01 206 165 37
-8.416822e-01 4.409587e-01 -1.186850e+01 188 149 20
-1.186226e+00 1.023118e-01 -1.109850e+01 219 189 65
1.847642e+01 2.139381e-01 -1.957728e+01 155 151 90
7.924777e-01 1.116155e+00 -1.186760e+01 30 33 2
-6.769137e-01 5.737580e-01 -9.427943e+00 185 97 9
4.560760e+00 -2.685127e-01 -1.146520e+01 161 152 75
6.414481e+00 -7.007895e-01 -1.209238e+01 164 157 91
4.242610e+00 -3.915310e-01 -1.112146e+01 52 47 7
4.264500e+00 -3.919952e-01 -1.113128e+01 52 47 7
1.653024e+00 4.762293e-01 -1.269719e+01 185 175 102
5.991511e-01 5.943183e-01 -1.200903e+01 87 75 0
4.567980e-01 5.779416e-01 -1.206122e+01 123 105 8
4.593975e-01 5.865974e-01 -1.211812e+01 190 179 100
5.088490e-01 4.951573e-01 -1.196607e+01 89 74 1
5.065338e-01 4.958151e-01 -1.196238e+01 89 74 1
4.071415e-01 5.037742e-01 -1.193697e+01 119 105 0
1.211261e+00 3.323842e-01 -1.233099e+01 116 101 25
4.735321e-01 4.565525e-01 -1.196550e+01 124 109 1
3.484729e-01 4.145059e-01 -1.210374e+01 188 142 54
3.484729e-01 4.145059e-01 -1.210374e+01 188 142 54
4.240298e-01 3.603659e-01 -1.200481e+01 123 75 0
3.649178e-01 3.545026e-01 -1.200781e+01 161 114 24
3.649178e-01 3.545026e-01 -1.200781e+01 161 114 24
-4.968509e-01 7.461453e-01 -1.266214e+01 153 112 0
2.905463e-01 3.641662e-01 -1.207962e+01 154 107 7
2.572513e+00 -8.109818e-01 -1.035497e+01 164 126 15
-1.419088e-01 3.777211e-01 -1.198647e+01 164 123 0
-7.262948e-01 5.377056e-01 -1.212326e+01 185 141 6
-7.262948e-01 5.377056e-01 -1.212326e+01 185 141 6
-7.251720e-01 5.161862e-01 -1.206342e+01 213 168 40
-7.182040e-01 4.618268e-01 -1.195517e+01 182 139 9
-6.309624e-01 4.369776e-01 -1.199540e+01 200 157 27
-7.432365e-01 9.238709e-02 -9.630671e+00 27 37 3
-5.263984e-01 -7.879863e-02 -9.089353e+00 36 47 16
-8.661379e-01 4.006757e-01 -1.178834e+01 153 114 0
-8.586704e-01 3.894742e-01 -1.175243e+01 229 195 77
-7.215356e-01 -1.383510e-02 -9.763042e+00 38 44 17
1.491327e+00 -1.063821e+00 -9.410103e+00 190 174 91
-1.209560e+00 6.050186e-02 -1.098320e+01 239 212 93
-7.519010e-01 -5.738434e-01 -9.871781e+00 117 115 48
-3.963941e-01 7.277012e-01 -9.063811e+00 163 105 0
-5.334862e-01 7.404174e-01 -9.202236e+00 227 140 23
-5.319136e-01 7.405502e-01 -9.201990e+00 227 140 23
8.558290e-01 1.476578e+00 -1.215822e+01 69 74 42
-2.240561e-01 5.111598e-01 -9.013531e+00 41 50 7
4.397059e+00 -2.985604e-01 -1.135025e+01 69 59 0
7.438520e-01 8.025148e-01 -1.220325e+01 121 115 37
4.373618e-01 5.626204e-01 -1.197419e+01 182 165 58
-7.378557e-01 3.184235e-01 -9.323626e+00 6 15 0
4.016185e-01 5.039986e-01 -1.202798e+01 117 109 0
3.744005e-01 4.379884e-01 -1.208090e+01 145 95 1
8.380311e-01 2.488303e-01 -1.199456e+01 157 123 14
6.725569e-01 1.898155e-01 -1.185275e+01 181 139 19
2.386522e+00 -6.568850e-01 -1.057429e+01 208 170 59
-6.206733e-01 6.249334e-01 -1.231397e+01 199 160 29
1.711316e+00 -8.713260e-01 -9.922974e+00 198 166 55
1.007759e+00 1.575093e+00 -1.219168e+01 56 63 15
9.252221e-01 1.438189e+00 -1.213139e+01 4 4 0
-7.084491e-01 5.013872e-01 -9.317677e+00 168 91 0
6.471240e-01 8.240490e-01 -1.223562e+01 111 107 33
3.812215e-01 7.852565e-01 -1.238285e+01 118 104 29
4.999652e-01 6.270133e-01 -1.193344e+01 232 224 115
4.999652e-01 6.270133e-01 -1.193344e+01 232 224 115
4.518885e-01 6.352819e-01 -1.213488e+01 19 12 0
4.774483e-01 5.883944e-01 -1.195675e+01 89 75 0
-7.557971e-01 3.443348e-01 -9.388386e+00 16 26 0
3.045934e-01 5.669371e-01 -1.255303e+01 114 86 22
5.966034e-01 1.789822e-01 -1.181543e+01 171 128 0
-7.674270e-01 4.951403e-01 -1.200617e+01 165 120 0
-8.147154e-01 4.786762e-01 -1.197346e+01 214 174 43
-6.448936e-01 -2.279988e-01 -9.177350e+00 21 30 3
-1.478519e+00 5.015810e-03 -1.071640e+01 245 221 89
-6.392297e-01 -4.336688e-01 -9.162482e+00 176 180 116
1.181185e-01 -9.914138e-01 -9.240456e+00 214 209 118
-8.259935e-01 -5.440162e-01 -9.326280e+00 32 43 13
1.656607e+01 1.785420e+00 -1.708749e+01 167 163 96
-4.386418e-01 7.350944e-01 -9.087413e+00 149 74 0
9.141035e-01 1.547336e+00 -1.224097e+01 2 3 0
9.445827e-01 1.557805e+00 -1.228435e+01 2 3 0
8.663058e-01 1.548054e+00 -1.228638e+01 116 122 75
6.756578e-02 1.376851e+00 -1.218988e+01 61 68 25
8.586070e-01 9.691522e-01 -1.201350e+01 10 10 0
-6.745906e-01 4.730703e-01 -9.257201e+00 158 82 0
-6.825036e-01 3.549951e-01 -9.272575e+00 18 28 1
6.317382e-01 6.379914e-01 -1.203055e+01 82 71 0
6.524602e-01 4.220948e-01 -1.203029e+01 153 118 32
4.012178e-01 3.823614e-01 -1.198353e+01 133 84 0
5.081831e-02 5.132285e-01 -1.228206e+01 125 94 1
-1.737140e-02 5.401457e-01 -1.235129e+01 121 87 0
-5.348158e-01 6.558054e-01 -1.239179e+01 158 121 6
2.397681e+00 -9.198632e-01 -1.003351e+01 189 159 45
1.974905e+00 -7.970730e-01 -1.014301e+01 213 177 65
-9.333456e-01 3.655153e-01 -1.172900e+01 220 186 54
-9.966852e-01 2.388250e-01 -1.146223e+01 154 120 6
-7.217805e-01 -4.516429e-02 -9.783070e+00 60 68 29
-5.273642e-01 -1.921575e-01 -9.156658e+00 43 51 20
-8.218924e-01 -5.081146e-01 -9.993184e+00 199 196 101
3.775079e-01 1.675936e+00 -1.241244e+01 128 132 76
7.938574e-01 1.457723e+00 -1.217428e+01 3 1 11
7.814928e-01 1.382257e+00 -1.204470e+01 74 79 37
2.806087e-02 1.517353e+00 -1.218201e+01 128 131 81
2.806087e-02 1.517353e+00 -1.218201e+01 128 131 81
7.395434e-01 1.136278e+00 -1.200434e+01 24 27 0
-6.814369e-01 5.549648e-01 -9.331898e+00 171 90 0
3.353703e-01 8.271298e-01 -1.223505e+01 147 137 60
-7.484677e-01 3.000206e-01 -9.498924e+00 43 53 16
-6.450908e-01 1.990547e-01 -9.220677e+00 15 30 1
7.414329e-01 3.318911e-01 -1.213614e+01 114 76 0
7.883934e-01 2.506612e-01 -1.208750e+01 169 128 17
-7.252309e-01 2.466894e-01 -9.554851e+00 48 58 21
-1.744543e-01 5.849687e-01 -1.242170e+01 121 86 0
-3.969835e-01 6.192338e-01 -1.231177e+01 137 105 0
-1.444375e-01 4.840452e-01 -1.219850e+01 184 145 14
2.554520e+00 -8.939693e-01 -1.019657e+01 185 151 41
-1.153611e+00 1.705346e-01 -1.124492e+01 232 201 69
-7.417286e-01 -2.720050e-01 -9.861562e+00 63 73 30
1.130405e-01 -9.860117e-01 -9.332819e+00 204 199 108
8.611735e-01 1.344520e+00 -1.202146e+01 4 8 1
7.509882e-01 1.302930e+00 -1.208885e+01 0 2 0
7.674760e-01 1.310135e+00 -1.210875e+01 0 2 0
7.965010e-01 1.216211e+00 -1.202219e+01 75 81 37
-4.801628e-01 5.221791e-01 -9.155349e+00 61 34 7
-6.961088e-01 4.279861e-01 -9.294578e+00 35 26 0
4.922213e-01 6.510127e-01 -1.199587e+01 228 221 107
-6.738731e-01 2.405072e-01 -9.221004e+00 16 26 1
3.508865e-01 4.382121e-01 -1.221705e+01 85 53 5
6.850986e-01 2.544921e-01 -1.194470e+01 170 128 16
-1.729832e-01 4.869077e-01 -1.216843e+01 183 144 13
-7.561646e-01 -2.925447e-02 -9.689459e+00 0 2 0
-7.033086e-01 -1.103761e-01 -1.083941e+01 236 235 142
-5.935216e-01 -2.645463e-01 -9.369250e+00 0 7 0
-6.490340e-01 -3.075558e-01 -9.208235e+00 10 21 0
-6.677597e-01 -3.643007e-01 -9.192144e+00 30 43 13
-7.255230e-01 4.441242e-01 -9.341611e+00 27 28 6
-6.158065e-01 2.785597e-01 -9.215809e+00 33 47 11
-7.158707e-01 3.214464e-01 -9.302121e+00 6 15 0
4.988862e-01 3.225436e-01 -1.193419e+01 152 105 17
6.314171e-02 2.275520e-01 -1.160467e+01 160 117 0
-1.485525e-01 2.946896e-01 -1.180057e+01 178 143 10
-3.880166e-01 3.703672e-01 -1.193795e+01 174 131 1
-8.475475e-01 7.696674e-02 -9.352362e+00 30 40 3
1.362620e+00 -1.030228e+00 -9.483443e+00 193 167 58
1.430487e-01 4.013171e-01 -1.209897e+01 182 145 15
-7.484174e-01 4.753412e-01 -1.196852e+01 183 140 10
1.780560e+00 -8.237447e-01 -1.012738e+01 202 166 54
-7.521305e-01 8.188711e-02 -1.116130e+01 241 241 151
-7.959491e-01 -1.325377e-01 -9.571884e+00 46 57 17
-6.567496e-01 -4.088922e-01 -9.494934e+00 0 7 0
-6.567496e-01 -4.088922e-01 -9.494934e+00 0 7 0
-6.994552e-01 -4.584200e-01 -9.614345e+00 37 48 16
-5.672284e-01 6.384221e-01 -9.216034e+00 215 128 0
3.998034e-01 6.042800e-01 -1.233896e+01 12 9 3
6.790494e-01 7.478264e-01 -1.218894e+01 135 129 45
2.145154e-01 9.100771e-01 -1.237878e+01 156 148 73
-3.995685e-02 6.447892e-01 -1.250852e+01 87 73 21
9.177771e-01 1.505829e+00 -1.224730e+01 83 91 52
-8.258242e-02 9.743764e-01 -1.239167e+01 34 47 2
4.167734e-01 5.019794e-01 -1.194739e+01 102 99 0
-4.851184e-02 7.715254e-01 -1.285233e+01 19 20 3
1.616956e+01 3.168231e-01 -1.990604e+01 36 31 0
1.712646e+01 2.695547e-01 -1.897489e+01 20 26 0
-3.895397e-02 1.028990e+00 -1.236345e+01 35 46 0
4.166783e-01 4.607200e-01 -1.195586e+01 143 109 12
2.318519e+00 -8.067820e-01 -1.029224e+01 212 172 69
8.700512e-01 1.929308e-01 -1.194307e+01 186 153 65
3.656186e-01 3.920646e-01 -1.217426e+01 117 68 2
1.456339e-01 1.534323e-01 -1.158600e+01 175 134 28
8.996526e+00 -3.812023e+00 -1.150950e+01 192 162 41
5.750259e-02 -2.812278e-01 -1.083750e+01 81 81 32
8.293314e-02 -7.668696e-01 -9.662526e+00 192 186 117
-6.531462e-03 1.035795e+00 -1.236443e+01 55 54 1
4.261657e-01 3.594564e-01 -1.200722e+01 116 64 0
-3.563755e-01 3.367123e-01 -1.184041e+01 215 174 58
8.747986e-01 7.675840e-01 -1.221829e+01 123 112 46
3.802500e+00 -8.798247e-01 -9.947228e+00 158 153 95
5.051675e-01 -3.147784e-02 -9.785839e+00 28 33 10
-5.269601e-01 7.595776e-01 -9.209313e+00 186 98 0
1.801266e-01 9.488376e-01 -1.234133e+01 116 106 44
3.465498e+00 -9.979619e-01 -9.689315e+00 168 157 103
2.239906e-01 1.727797e+00 -1.249668e+01 133 131 76
-7.576588e-02 1.005991e+00 -1.240832e+01 50 56 20
3.532748e+00 -1.140156e+00 -9.944377e+00 82 52 0
1.359048e+00 -1.030536e+00 -9.485892e+00 201 166 61
-6.555281e-01 5.327732e-01 -9.220508e+00 171 88 0
3.442380e+01 1.384820e+01 -4.329214e+01 147 216 192
4.537241e-01 8.978728e-01 -1.227216e+01 141 139 62
2.062967e+01 4.738062e+00 -2.361780e+01 145 165 106
-4.360939e-01 7.569307e-01 -1.071974e+01 21 25 0
3.203195e+01 1.248581e+01 -3.901241e+01 120 168 117
1.378784e+01 6.769976e+00 -2.641466e+01 70 90 77
1.322733e+01 6.810816e+00 -2.641511e+01 15 37 24
1.686024e+01 1.903964e+00 -1.739425e+01 93 71 10
6.140190e+00 1.718540e+00 -1.658480e+01 130 115 39
4.661831e-01 5.598018e-01 -1.212515e+01 94 79 2
-3.799194e-02 4.857741e-01 -1.229072e+01 168 129 12
-6.922181e-01 2.876248e-01 -9.253266e+00 13 23 0
4.330312e-01 4.384856e-01 -1.194950e+01 175 140 34
4.330312e-01 4.384856e-01 -1.194950e+01 175 140 34
4.825834e-01 3.680338e-01 -1.196628e+01 118 76 0
-7.837015e-01 -3.625910e-01 -9.767882e+00 45 57 19
2.565343e-01 6.430547e-01 -1.254979e+01 17 18 0
3.262488e-01 1.114958e+00 -1.195236e+01 36 41 9
-7.368050e-01 3.594533e-01 -9.445838e+00 21 32 1
1.669325e+01 1.996439e+00 -1.733004e+01 101 73 10
1.133522e+00 9.122007e-01 -1.190022e+01 12 14 0
-1.451266e+00 -9.254300e-02 -1.066269e+01 232 205 72
-1.384189e+00 -6.343327e-02 -1.075389e+01 239 213 80
-1.337019e+00 3.609278e-02 -1.096893e+01 231 203 72
1.611499e+01 3.331822e+00 -1.539532e+01 120 110 41
6.012937e-01 -1.098886e-01 -8.758097e+00 162 145 81
3.999728e-01 8.051883e-01 -1.234365e+01 158 139 71
3.401162e+00 -1.143908e+00 -9.719738e+00 29 15 0
5.027395e-01 3.884708e-01 -1.196888e+01 157 102 19
3.793373e-01 4.199685e-01 -1.202132e+01 159 100 6
6.492271e-02 6.809226e-01 -1.258659e+01 22 16 6
3.811622e-01 3.876874e-01 -1.208249e+01 129 78 0
3.824089e-01 3.882934e-01 -1.208575e+01 129 78 0
3.471295e-01 3.948367e-01 -1.221068e+01 123 78 2
-7.559860e-01 -7.374153e-02 -9.658589e+00 17 24 0
3.295203e-01 4.993028e-01 -1.217272e+01 72 51 21
-7.463630e-01 -9.604274e-02 -9.640052e+00 43 51 12
-6.905902e-01 -3.797368e-01 -9.491948e+00 9 18 2
-8.800576e-01 -2.753910e-01 -1.051777e+01 244 237 149
-8.236696e-01 -5.498393e-01 -9.592972e+00 33 32 7
-2.334949e-03 9.430303e-01 -1.236590e+01 66 65 8
-7.366674e-01 -2.999964e-01 -9.736930e+00 32 43 5
-6.260082e-01 3.655695e-01 -1.184729e+01 254 240 139
-7.354573e-01 -3.177531e-01 -9.771094e+00 43 53 16
-9.282040e-01 1.888224e-01 -8.489702e+00 161 151 80
-1.467030e-01 -2.331407e-01 -1.097751e+01 248 236 146
8.545816e-01 8.091242e-01 -1.216696e+01 151 140 77
8.545816e-01 8.091242e-01 -1.216696e+01 151 140 77
6.068776e+00 1.673608e+00 -1.631528e+01 121 101 15
6.070211e+00 1.707271e+00 -1.641682e+01 155 134 53
5.877587e+00 1.322993e+00 -1.552203e+01 186 164 55
2.223486e+00 4.791383e-01 -1.278007e+01 140 122 19
3.441821e+00 -9.979764e-01 -9.671396e+00 160 158 102
8.058593e-01 7.887317e-01 -1.219681e+01 123 116 41
1.596182e+00 3.168033e-01 -1.235640e+01 188 156 47
1.031368e+00 2.810215e-01 -1.194487e+01 165 139 38
3.972968e-01 3.212879e-01 -1.204106e+01 129 79 0
1.246062e-01 1.662300e-01 -1.163885e+01 158 128 1
-4.641080e-02 2.554927e-01 -1.175570e+01 205 169 31
-1.128848e+00 1.083082e-01 -1.116802e+01 238 220 99
-7.337412e-01 -5.263383e-01 -9.957310e+00 105 112 49
1.688907e+01 3.861551e-01 -1.912386e+01 35 31 2
1.668013e+01 -1.377645e-01 -1.910358e+01 40 21 0
6.077333e+00 1.568129e+00 -1.610831e+01 201 184 96
5.639795e+00 1.412674e+00 -1.568322e+01 187 170 89
5.732393e+00 1.233592e+00 -1.546044e+01 116 98 7
1.032817e+01 -1.836935e+00 -1.187183e+01 70 68 11
-5.079909e-01 7.653596e-01 -9.197985e+00 239 159 7
1.086630e+01 -3.369855e+00 -1.249820e+01 32 29 0
3.462772e+00 -1.245335e+00 -9.756572e+00 93 66 0
4.605910e-01 6.235770e-01 -1.193845e+01 234 231 115
1.170266e+00 3.325472e-01 -1.228022e+01 114 94 7
4.010345e-01 4.837194e-01 -1.199988e+01 134 114 0
3.382532e-01 5.294187e-01 -1.248683e+01 94 65 0
3.518974e-01 3.753641e-01 -1.220791e+01 139 95 5
3.699867e-01 3.234497e-01 -1.209614e+01 162 108 7
2.793284e-01 3.249232e-01 -1.203770e+01 168 121 5
-8.318113e-02 3.756518e-01 -1.220971e+01 190 148 14
-1.003910e-01 3.586918e-01 -1.207161e+01 167 125 1
-1.573332e-01 3.550531e-01 -1.200324e+01 202 160 26
-1.996428e-01 3.832529e-01 -1.205768e+01 189 149 15
-2.523389e-01 3.046736e-01 -1.188359e+01 212 175 43
-7.586573e-01 -3.157926e-01 -9.752960e+00 43 58 19
-1.643502e+00 2.299355e-02 -1.082234e+01 247 226 85
1.045661e+01 -2.999833e+00 -1.265275e+01 42 37 0
-8.188046e-02 4.526945e-01 -1.223900e+01 172 130 0
1.720575e+00 -1.092049e+00 -9.557555e+00 203 162 38
1.655740e+01 4.822347e-01 -1.880073e+01 156 157 97
1.063483e+01 -2.018973e+00 -1.195017e+01 56 58 8
-5.696181e-01 8.046802e-01 -9.265232e+00 223 148 1
1.082043e+01 -2.997566e+00 -1.277025e+01 143 134 76
3.251854e-01 3.049931e-01 -1.197869e+01 171 118 10
2.126457e-01 2.559351e-01 -1.185509e+01 169 122 4
-7.594374e-01 -8.988311e-02 -9.581112e+00 41 53 15
-7.241434e-01 -6.350339e-01 -9.737289e+00 115 113 54
1.233898e+00 1.052207e+00 -1.188443e+01 30 35 3
1.067402e+01 -2.468782e+00 -1.217709e+01 62 61 6
9.814844e+00 -2.744413e+00 -1.174660e+01 35 43 2
1.282412e+00 5.801386e-01 -1.211454e+01 195 176 77
4.983635e-01 6.271858e-01 -1.193586e+01 231 225 115
7.900786e-01 1.980217e-01 -1.193699e+01 172 135 15
-5.432951e-01 7.194291e-01 -9.190689e+00 179 100 0
-5.753673e-01 7.113454e-01 -9.208111e+00 227 145 9
3.399091e+00 -1.090601e+00 -9.745291e+00 126 110 34
-1.168197e+00 8.415572e-02 -1.110899e+01 189 167 38
-7.452653e-01 6.793846e-03 -9.626685e+00 50 63 20
-5.730726e-01 -1.037853e-01 -1.095436e+01 246 248 151
-3.800395e-01 2.943646e-04 -1.113914e+01 239 241 144
-7.048537e-01 -1.120432e-01 -1.084103e+01 233 237 142
-5.499669e-01 7.716060e-01 -9.227454e+00 184 100 5
-6.023069e-01 7.200042e-01 -9.243865e+00 217 136 1
-3.773369e-02 1.525267e-01 -1.165822e+01 244 245 141
4.555266e-01 5.478190e-01 -1.206246e+01 127 110 5
4.922654e-01 4.912972e-01 -1.200402e+01 134 109 8
4.114336e-01 5.152713e-01 -1.202916e+01 119 103 0
