ply
format ascii 1.0
element face 0
property list uchar int vertex_indices
element vertex 262
property float x
property float y
property float z
property uchar diffuse_red
property uchar diffuse_green
property uchar diffuse_blue
end_header
-4.509726e-01 8.101620e-01 -7.947575e+00 191 128 0
-5.433766e-01 7.765056e-01 -7.954177e+00 168 104 10
-5.451998e-01 7.151661e-01 -7.936084e+00 134 88 0
-5.575682e-01 6.990950e-01 -7.953615e+00 123 77 0
-6.375462e-01 3.945203e-01 -8.084975e+00 82 52 0
-2.413147e+00 7.541399e-01 -1.293901e+01 193 171 30
2.754487e+00 6.713959e-02 -1.267918e+01 206 181 60
-2.303741e+00 -2.177500e-01 -1.038256e+01 207 187 57
-2.303741e+00 -2.177500e-01 -1.038256e+01 207 187 57
1.597000e+00 -3.652318e-01 -1.125864e+01 226 213 110
1.796967e+00 -3.985257e-01 -1.125192e+01 201 189 70
-2.106869e+00 -3.246820e-01 -1.023968e+01 233 214 83
-1.971281e+00 -3.935679e-01 -1.013647e+01 218 210 83
-2.190789e+00 -4.329322e-01 -9.925338e+00 238 210 84
1.339470e+00 -5.405415e-01 -1.068903e+01 219 225 139
5.444877e-01 -5.284264e-01 -9.259618e+00 28 36 20
5.444877e-01 -5.284264e-01 -9.259618e+00 28 36 20
-2.350278e-01 7.489647e-01 -7.944952e+00 64 73 17
-7.332254e-01 6.429023e-01 -8.117598e+00 166 101 0
-6.158323e-01 6.107333e-01 -8.030461e+00 72 44 0
-6.665871e-01 4.734937e-01 -8.049242e+00 110 66 0
-2.574235e+00 8.133820e-01 -1.310324e+01 209 199 79
-2.415161e+00 7.866501e-01 -1.288811e+01 238 219 87
-6.324174e-01 3.475147e-01 -8.111702e+00 56 37 0
-2.381068e+00 6.221531e-01 -1.261858e+01 233 216 66
-6.375611e-01 1.858026e-01 -8.142825e+00 38 43 9
2.972136e+00 1.766110e-01 -1.315255e+01 194 175 54
-1.978760e+00 1.716211e-01 -1.155734e+01 205 186 47
1.595681e+00 -3.341572e-01 -1.126983e+01 80 61 0
1.820174e+00 -3.807713e-01 -1.120966e+01 229 210 89
1.293760e+00 -5.775127e-01 -1.060538e+01 208 214 133
6.486691e-01 -4.580910e-01 -9.277048e+00 7 25 1
7.631275e-01 -8.756875e-01 -9.818032e+00 141 152 76
6.560347e-01 -1.078463e+00 -9.371440e+00 181 191 94
-1.104320e+00 -9.293557e-01 -8.328177e+00 214 221 141
2.403813e+00 2.026215e+00 -1.292469e+01 118 129 71
-4.180621e-01 7.453739e-01 -7.932358e+00 80 51 0
-1.986226e-01 7.190639e-01 -7.933139e+00 27 43 0
-5.296961e-01 6.938533e-01 -7.953472e+00 80 52 0
-5.808383e-01 6.622804e-01 -7.981741e+00 73 46 0
-6.502532e-01 5.069038e-01 -8.036177e+00 92 47 0
-6.419501e-01 4.408850e-01 -8.064285e+00 90 50 0
-6.310390e-01 4.361284e-01 -8.110961e+00 112 80 23
-6.197553e-01 4.149213e-01 -8.115479e+00 58 30 0
-6.752603e-01 3.206069e-01 -8.076456e+00 88 63 12
-8.263746e-01 3.184118e-01 -8.122438e+00 36 40 4
2.891201e+00 1.566380e-01 -1.283040e+01 120 102 3
2.942349e+00 3.358414e-02 -1.274461e+01 192 169 50
-1.873300e+00 -9.284187e-02 -1.091114e+01 226 211 69
-2.124712e+00 -2.984637e-01 -1.028569e+01 160 141 10
-2.127734e+00 -2.992774e-01 -1.029456e+01 160 141 10
1.310406e+00 -5.190858e-01 -1.067032e+01 89 95 19
5.565737e-01 -4.277690e-01 -9.398510e+00 225 237 173
1.226758e+00 -6.047721e-01 -1.049248e+01 225 231 152
7.940883e-01 -8.608868e-01 -9.777424e+00 173 183 99
-1.124470e+00 -9.011046e-01 -8.407458e+00 63 72 6
-4.562739e-01 7.566305e-01 -7.917711e+00 136 89 0
-3.961817e-01 7.259945e-01 -7.928780e+00 67 60 13
-5.793994e-01 6.185714e-01 -7.989232e+00 59 50 3
-6.530378e-01 5.647917e-01 -7.999334e+00 117 73 9
-2.400285e+00 6.779194e-01 -1.264114e+01 206 185 42
-7.628648e-01 3.124762e-01 -8.090943e+00 31 20 0
-2.684044e+00 2.485409e-01 -1.151791e+01 228 206 69
-2.572079e+00 2.179981e-01 -1.151265e+01 222 196 57
-3.334460e-01 9.566769e-02 -7.949306e+00 29 40 1
6.089049e-01 -1.009781e+00 -9.357182e+00 162 173 81
-1.046410e+00 -7.854764e-01 -8.340762e+00 40 58 10
7.454993e-01 -1.079441e+00 -9.323961e+00 201 208 105
-5.140239e-01 7.641350e-01 -7.943302e+00 218 164 26
-1.953912e-01 6.714172e-01 -7.947076e+00 23 40 4
-6.830917e-01 5.717816e-01 -7.985771e+00 119 66 0
-7.001835e-01 5.154967e-01 -8.014648e+00 124 71 1
-6.072620e-01 4.619811e-01 -8.088120e+00 52 26 0
-6.726705e-01 4.508095e-01 -8.046586e+00 132 88 9
-5.779378e-01 4.296003e-01 -8.065720e+00 73 65 3
-7.019558e-01 2.968938e-01 -8.072412e+00 14 13 0
3.815324e+00 5.640162e-01 -1.438614e+01 121 110 23
-7.003374e-01 2.578246e-01 -8.100243e+00 10 24 2
-6.024603e-01 -7.770742e-02 -7.926644e+00 15 28 0
1.993957e+00 -4.560593e-01 -1.112621e+01 215 202 76
4.737351e-01 -3.073964e-01 -9.582845e+00 63 68 1
-7.873498e-01 -4.064404e-01 -8.062056e+00 16 36 2
-9.196117e-01 -5.938507e-01 -8.138627e+00 25 48 6
5.496485e-01 -1.024299e+00 -9.205617e+00 166 175 82
6.583232e-01 -1.060311e+00 -9.184460e+00 202 208 110
3.315316e-01 -1.097951e+00 -8.983810e+00 162 172 83
4.773417e-01 -1.188997e+00 -8.894279e+00 181 189 93
-1.884656e-01 7.774401e-01 -7.957815e+00 35 12 10
-2.670042e+00 -1.218920e-01 -1.056583e+01 247 223 91
1.990966e+00 -3.024502e-01 -1.153667e+01 226 206 78
-5.169258e-01 -1.349664e-01 -7.984505e+00 20 37 1
-2.273792e+00 -5.656950e-01 -9.684304e+00 237 217 86
-7.722451e-01 -3.007793e-01 -8.007924e+00 15 32 0
-7.309733e-01 -3.178536e-01 -8.067549e+00 15 31 2
4.761914e-01 -5.463532e-01 -9.198086e+00 3 4 7
-9.598172e-02 6.796461e-01 -8.119893e+00 67 67 4
-5.594920e-01 5.335421e-01 -8.036077e+00 64 60 5
-5.770765e-01 3.564629e-01 -8.064669e+00 71 68 7
-5.770475e-01 3.561475e-01 -8.064844e+00 71 68 7
-5.774021e-01 3.567955e-01 -8.065519e+00 71 68 7
-7.099457e-01 3.386626e-01 -8.070769e+00 143 100 7
1.182334e-01 3.173456e-01 -8.416229e+00 63 64 0
-1.981152e+00 -3.565622e-01 -1.019301e+01 230 213 83
-2.187919e+00 -3.560816e-01 -1.010687e+01 188 163 34
-2.182519e+00 -3.545375e-01 -1.009215e+01 188 163 34
2.215595e+00 -5.002408e-01 -1.110712e+01 184 153 30
1.092296e-01 -8.040731e-01 -8.940152e+00 76 82 12
-1.806496e+00 -8.822521e-01 -8.804319e+00 235 236 142
4.259835e-01 -1.046121e+00 -9.260056e+00 127 135 60
-6.197447e-01 5.287620e-01 -8.051143e+00 57 25 0
2.948744e+00 -1.190287e-01 -1.238003e+01 210 186 59
-1.739998e+00 -5.348777e-01 -9.660023e+00 239 243 146
-8.321076e-01 -6.213072e-01 -8.098148e+00 29 51 13
-3.574273e-01 -1.301341e+00 -8.541675e+00 165 171 98
-5.364579e-01 4.737163e-01 -8.062938e+00 58 57 0
-6.647909e-01 2.792592e-01 -8.078483e+00 6 12 0
-6.039135e-01 -3.820353e-01 -8.052422e+00 16 33 0
1.045854e+00 -1.023534e+00 -9.507590e+00 226 229 126
3.197606e-01 -1.170925e+00 -8.893539e+00 166 176 87
-5.714733e-01 -8.697579e-01 -8.407391e+00 84 86 21
-4.153045e-01 -1.186840e+00 -8.505275e+00 34 49 8
1.742182e-01 4.128079e-01 -8.502765e+00 56 54 2
-9.590061e-01 -1.026014e+00 -8.311151e+00 26 38 0
-8.169633e-01 -8.423454e-01 -8.420193e+00 45 61 19
-4.309063e-01 7.522028e-01 -7.924001e+00 116 83 5
-4.940031e-01 7.366390e-01 -7.965318e+00 121 80 6
-6.130864e-01 7.106565e-01 -7.986707e+00 122 66 4
-6.492979e-01 6.018525e-01 -8.010031e+00 105 61 9
-6.283110e-01 5.942701e-01 -8.010550e+00 90 58 6
-2.347059e+00 1.252155e+00 -1.424254e+01 229 227 123
-1.455753e-02 4.620755e-01 -8.367315e+00 70 71 4
-2.773299e+00 5.519847e-01 -1.242671e+01 215 203 86
-1.965189e+00 -4.352197e-01 -9.905871e+00 231 220 104
4.548076e-01 -1.072226e+00 -9.150244e+00 161 171 85
-5.719824e-01 7.084532e-01 -7.966799e+00 153 106 22
-2.600569e+00 -4.989965e-03 -1.086320e+01 253 233 100
-2.600569e+00 -4.989965e-03 -1.086320e+01 253 233 100
4.320144e-01 -1.230231e-01 -9.079497e+00 66 74 23
3.741190e-01 -1.541482e-01 -8.985642e+00 69 70 2
-2.273030e+00 -6.555449e-01 -9.415209e+00 235 212 89
-8.752279e-01 -1.183961e+00 -8.424675e+00 66 73 28
-7.996446e-01 -1.197544e+00 -8.452628e+00 73 82 29
-6.666650e-01 6.453125e-01 -8.045811e+00 121 73 0
-4.801539e-01 3.589706e-01 -8.044378e+00 50 53 6
-5.145835e-01 -9.843987e-02 -8.023542e+00 13 29 3
-5.089787e-01 6.472784e-01 -8.019963e+00 50 47 2
6.624673e-02 5.235591e-01 -8.460105e+00 55 53 3
-6.893036e-01 -2.764964e-01 -8.086135e+00 13 29 2
6.623947e-01 -1.022019e+00 -9.294899e+00 190 196 96
-1.059751e+00 -9.442088e-01 -8.463859e+00 50 68 26
-6.384935e-01 4.813447e-01 -8.078758e+00 107 71 3
-7.362529e-01 3.739527e-01 -8.080179e+00 116 72 2
-6.982498e-01 2.557335e-01 -8.064550e+00 10 24 2
-7.175073e-01 2.260543e-02 -8.159780e+00 4 15 1
-5.740332e-01 -2.028717e-01 -7.976150e+00 17 33 2
2.733748e-01 -4.138761e-01 -8.992801e+00 77 76 10
-9.913881e-01 -8.396349e-01 -8.286877e+00 44 62 22
-5.251577e-01 1.096381e-01 -8.185332e+00 18 28 0
-6.312326e-01 5.521505e-02 -8.268621e+00 47 55 6
-2.249744e+00 -2.764187e-01 -1.024084e+01 244 223 95
-4.473631e-01 -1.105112e-01 -7.980416e+00 18 31 0
-1.087578e+00 -4.446700e-01 -8.525105e+00 231 236 136
-6.974531e-01 -4.062637e-01 -8.024311e+00 21 41 3
-6.022471e-01 2.574840e-01 -8.126232e+00 51 58 2
-6.027132e-01 1.259509e-01 -8.172510e+00 52 60 3
9.978816e-02 -3.653596e-01 -8.946057e+00 84 86 13
4.975621e-01 -4.744512e-01 -8.886057e+00 1 6 0
-3.904169e-01 7.634301e-01 -7.932455e+00 106 82 12
-5.360632e-01 7.063089e-01 -7.944225e+00 119 82 7
-6.143547e-01 5.037065e-01 -8.087581e+00 71 42 2
-2.631671e+00 4.224000e-01 -1.184886e+01 232 216 99
2.074837e+00 -4.684779e-01 -1.140559e+01 215 203 82
-2.177717e+00 -3.405129e-01 -1.002958e+01 194 170 46
-2.211162e+00 -4.613696e-01 -9.852745e+00 235 214 87
-7.559177e-01 -1.181831e+00 -8.374786e+00 84 92 32
-1.069477e+00 -1.154130e+00 -8.331998e+00 167 169 82
-2.303873e-01 7.905890e-01 -7.951487e+00 97 80 2
-3.644775e-01 7.658831e-01 -7.907651e+00 154 125 38
-5.250191e-01 7.798992e-01 -7.952294e+00 147 89 0
-6.726203e-01 3.521641e-01 -8.084942e+00 100 65 0
-2.299660e+00 8.834756e-01 -1.308174e+01 236 217 94
-2.129277e+00 1.283030e-02 -1.116660e+01 215 196 65
-4.185270e-01 -1.218442e+00 -8.452133e+00 65 70 15
-5.150398e-01 7.659566e-01 -7.948570e+00 220 170 41
-6.721994e-01 5.076287e-01 -8.033738e+00 122 73 4
-6.915469e-01 4.101302e-01 -8.045354e+00 131 83 13
-7.284205e-01 3.981090e-01 -8.056100e+00 130 78 9
-7.932930e-01 3.969612e-01 -8.083307e+00 122 73 0
-6.525068e-01 3.658522e-01 -8.067812e+00 91 58 0
-7.317809e-01 2.740570e-01 -8.026119e+00 17 30 4
-6.088811e-01 -1.637276e-01 -7.993443e+00 8 26 2
-1.944367e+00 -1.326668e-01 -1.124466e+01 232 218 85
3.965439e-01 -9.453189e-01 -9.230378e+00 96 107 45
-8.189735e-01 -1.166851e+00 -8.526662e+00 52 60 13
-5.310113e-01 -1.214109e+00 -8.574293e+00 86 94 35
-8.833833e-02 6.499827e-01 -7.940601e+00 80 76 11
-7.838968e-01 4.579456e-01 -8.080038e+00 138 84 0
-5.423762e-01 3.667044e-01 -8.084370e+00 70 71 14
-7.897238e-01 3.456841e-01 -8.091404e+00 125 85 8
2.568754e+00 -4.942752e-02 -1.266928e+01 216 198 70
-2.436115e+00 -1.452736e-01 -1.064934e+01 238 220 94
-7.548747e-01 -3.707596e-01 -8.078817e+00 10 28 3
-7.285537e-01 -4.266792e-01 -8.039445e+00 27 45 17
-3.359248e-01 -1.162961e+00 -8.471435e+00 159 169 98
-2.242550e-01 6.873624e-01 -7.912275e+00 26 44 4
-3.239194e-01 5.894799e-01 -7.818465e+00 29 47 7
2.289349e+00 -5.986804e-01 -1.109459e+01 247 235 128
-1.997467e+00 -6.322923e-01 -9.529780e+00 248 247 155
-5.153954e-01 -7.775410e-01 -8.346732e+00 89 91 18
-3.488335e-01 -1.131592e+00 -8.500247e+00 38 50 0
2.248944e+00 -3.640495e-01 -1.165516e+01 222 206 80
2.657751e-01 2.634882e-01 -8.702773e+00 59 59 0
2.739971e+00 -2.830991e-01 -1.209491e+01 190 155 25
-1.319200e+00 -2.765045e-01 -8.567177e+00 230 216 83
-5.507022e-01 7.346607e-01 -7.957279e+00 170 116 21
-2.255185e+00 1.174204e+00 -1.398077e+01 214 202 73
-7.695507e-01 1.421780e-01 -8.105606e+00 7 24 0
-2.142611e+00 -3.965794e-01 -9.910378e+00 239 211 85
-5.369497e-01 7.023904e-01 -7.929714e+00 121 82 10
-2.262468e-01 6.804037e-01 -7.899201e+00 16 37 0
-2.170103e+00 -1.990945e-02 -1.101694e+01 200 180 45
-1.890310e+00 -2.389117e-01 -1.041694e+01 234 218 77
1.109298e-01 2.287749e-01 -8.547273e+00 65 66 0
-2.105710e+00 2.617446e-01 -1.164905e+01 231 214 72
9.687932e-02 4.605894e-02 -8.677273e+00 78 80 7
-5.120992e-01 7.335545e-01 -7.908058e+00 151 106 0
-6.188362e-01 1.688620e-01 -8.151722e+00 38 48 0
-6.709894e-01 5.474454e-01 -8.025562e+00 109 64 0
-7.537274e-01 3.623597e-01 -8.070600e+00 115 66 0
-1.157892e+00 -9.856151e-01 -8.251080e+00 220 226 128
-6.732087e-01 5.283656e-01 -8.025930e+00 114 67 0
-1.557265e+00 6.351745e-01 -1.284022e+01 203 184 55
-1.657704e+00 -6.347606e-02 -1.097204e+01 215 203 87
-1.970293e+00 -4.146695e-01 -1.003810e+01 227 213 101
-1.151940e-01 7.171956e-01 -8.013482e+00 70 66 14
-1.283069e+00 1.896391e-01 -7.197919e+00 78 82 4
-1.452256e+00 1.055825e-01 -1.134791e+01 177 166 48
-1.964180e+00 -4.655188e-01 -9.906646e+00 253 253 154
1.410224e-02 -9.975132e-01 -8.993164e+00 77 83 33
-3.970915e-01 7.302095e-01 -7.937581e+00 73 65 9
4.323620e+00 -1.750067e-01 -1.304021e+01 95 104 53
-1.709096e+00 4.831589e-01 -1.249880e+01 195 176 48
-1.709096e+00 4.831589e-01 -1.249880e+01 195 176 48
-1.823119e+00 1.266961e+00 -1.448398e+01 244 228 93
-4.446063e-01 -1.301981e+00 -8.543735e+00 140 150 79
-1.792249e+00 8.058608e-01 -1.299855e+01 233 215 87
-7.135641e-01 -4.569566e-01 -8.047866e+00 13 36 0
-5.355074e-01 -9.660886e-01 -8.464302e+00 59 62 5
-8.080257e-01 -3.488091e-01 -8.045532e+00 13 31 0
-6.668530e-01 2.965154e-01 -8.125094e+00 14 13 9
-2.022947e+00 -1.233265e-01 -1.071272e+01 238 220 94
-1.760812e+00 -5.636606e-01 -9.721063e+00 243 247 162
7.191423e-01 -1.289719e+00 -8.637971e+00 205 217 117
-4.245148e-01 -1.258824e+00 -8.279944e+00 174 186 104
-3.595575e-01 1.559430e-01 -5.291426e+00 0 255 0
-3.605095e-01 1.537651e-01 -5.341370e+00 255 255 0
-3.683936e-01 -3.254014e-01 -5.400423e+00 255 0 0
-3.659256e-01 -3.219073e-01 -5.450239e+00 255 255 0
-7.634690e-01 -2.954725e-01 -5.330978e+00 0 255 0
-7.552602e-01 -2.926013e-01 -5.380216e+00 255 255 0
-1.311498e+00 -2.367039e-01 -5.472289e+00 255 0 0
-1.295680e+00 -2.347921e-01 -5.519683e+00 255 255 0
