ply
format ascii 1.0
element face 0
property list uchar int vertex_indices
element vertex 940
property float x
property float y
property float z
property uchar diffuse_red
property uchar diffuse_green
property uchar diffuse_blue
end_header
-1.714884e+00 -2.851944e-01 -1.045068e+01 218 210 83
-1.919685e+00 -3.245169e-01 -1.028735e+01 238 210 84
1.134262e+00 -3.730119e-01 -1.091234e+01 219 225 139
5.387942e-01 -3.912378e-01 -9.829008e+00 28 36 20
5.387942e-01 -3.912378e-01 -9.829008e+00 28 36 20
-1.487167e-01 8.264116e-01 -8.701890e+00 64 73 17
-6.342597e-01 7.087208e-01 -8.839361e+00 166 101 0
-5.198906e-01 6.827934e-01 -8.766317e+00 72 44 0
-5.689251e-01 5.500074e-01 -8.790744e+00 110 66 0
-2.035733e+00 6.540402e-01 -1.227267e+01 209 199 79
-1.918831e+00 6.389773e-01 -1.213143e+01 238 219 87
-5.344886e-01 4.251964e-01 -8.845202e+00 56 37 0
-1.916513e+00 5.239543e-01 -1.201380e+01 233 216 66
-5.380357e-01 2.675293e-01 -8.873514e+00 38 43 9
2.179711e+00 2.198902e-01 -1.244941e+01 194 175 54
-1.649835e+00 1.915624e-01 -1.139214e+01 205 186 47
1.296467e+00 -1.914508e-01 -1.131047e+01 80 61 0
1.490581e+00 -2.287105e-01 -1.127777e+01 229 210 89
1.102694e+00 -4.062518e-01 -1.085294e+01 208 214 133
6.339304e-01 -3.268422e-01 -9.857057e+00 7 25 1
7.009303e-01 -6.867682e-01 -1.025606e+01 141 152 76
6.369329e-01 -8.855657e-01 -9.906842e+00 181 191 94
-9.744596e-01 -8.100489e-01 -9.010264e+00 214 221 141
1.770504e+00 1.652849e+00 -1.236870e+01 118 129 71
-3.267391e-01 8.193441e-01 -8.676230e+00 80 51 0
-1.124049e-01 7.984055e-01 -8.693205e+00 27 43 0
-4.360988e-01 7.681871e-01 -8.698834e+00 80 52 0
-4.860820e-01 7.356724e-01 -8.723731e+00 73 46 0
-5.527656e-01 5.818272e-01 -8.773855e+00 92 47 0
-5.440283e-01 5.166632e-01 -8.799015e+00 90 50 0
-5.337763e-01 5.107310e-01 -8.841642e+00 112 80 23
-5.227299e-01 4.901813e-01 -8.846753e+00 58 30 0
-5.766994e-01 3.994392e-01 -8.816796e+00 88 63 12
-7.226792e-01 3.947484e-01 -8.850191e+00 36 40 4
2.171673e+00 2.085835e-01 -1.230901e+01 120 102 3
2.224708e+00 1.141698e-01 -1.226343e+01 192 169 50
-1.593752e+00 -2.233349e-02 -1.099058e+01 226 211 69
-1.834339e+00 -2.014217e-01 -1.053489e+01 160 141 10
-1.836874e+00 -2.027211e-01 -1.054218e+01 160 141 10
1.110605e+00 -3.551825e-01 -1.089799e+01 89 95 19
5.415518e-01 -2.984395e-01 -9.949518e+00 225 237 173
1.054605e+00 -4.320108e-01 -1.077090e+01 225 231 152
7.326082e-01 -6.762024e-01 -1.023371e+01 173 183 99
-9.963135e-01 -7.829819e-01 -9.091699e+00 63 72 6
-3.643668e-01 8.318009e-01 -8.666810e+00 136 89 0
-3.056159e-01 8.024464e-01 -8.681024e+00 67 60 13
-4.847297e-01 6.939635e-01 -8.736483e+00 59 50 3
-5.554143e-01 6.390081e-01 -8.737530e+00 117 73 9
-1.929034e+00 5.691991e-01 -1.202756e+01 206 185 42
-6.614322e-01 3.903294e-01 -8.824164e+00 31 20 0
-2.229713e+00 2.479454e-01 -1.135461e+01 228 206 69
-2.128939e+00 2.207873e-01 -1.132487e+01 222 196 57
-2.380878e-01 1.862981e-01 -8.709140e+00 29 40 1
5.950641e-01 -8.248902e-01 -9.900031e+00 162 173 81
-9.214020e-01 -6.719746e-01 -9.029543e+00 40 58 10
7.204900e-01 -8.868084e-01 -9.867445e+00 201 208 105
-4.214391e-01 8.377393e-01 -8.690207e+00 218 164 26
-1.091487e-01 7.513179e-01 -8.706905e+00 23 40 4
-5.851977e-01 6.465872e-01 -8.726644e+00 119 66 0
-6.014873e-01 5.905619e-01 -8.753296e+00 124 71 1
-5.108338e-01 5.367730e-01 -8.822016e+00 52 26 0
-5.738193e-01 5.264968e-01 -8.781726e+00 132 88 9
-4.824232e-01 5.076786e-01 -8.809738e+00 73 65 3
-6.013864e-01 3.762658e-01 -8.808351e+00 14 13 0
2.653698e+00 4.943251e-01 -1.313037e+01 121 110 23
-5.992322e-01 3.375793e-01 -8.831802e+00 10 24 2
-4.993432e-01 1.361106e-02 -8.679278e+00 15 28 0
1.645962e+00 -2.907952e-01 -1.122651e+01 215 202 76
4.543699e-01 -1.888187e-01 -1.009080e+01 63 68 1
-6.771047e-01 -3.091646e-01 -8.794381e+00 16 36 2
-8.033031e-01 -4.914023e-01 -8.856888e+00 25 48 6
5.511743e-01 -8.449502e-01 -9.779890e+00 166 175 82
6.521520e-01 -8.776358e-01 -9.764357e+00 202 208 110
3.634915e-01 -9.222258e-01 -9.585907e+00 162 172 83
5.023900e-01 -1.006378e+00 -9.503783e+00 181 189 93
-1.038897e-01 8.542288e-01 -8.715040e+00 35 12 10
-2.293192e+00 -5.954329e-02 -1.072558e+01 247 223 91
1.598094e+00 -1.605954e-01 -1.149498e+01 226 206 78
-4.157604e-01 -4.203403e-02 -8.735924e+00 20 37 1
-2.003240e+00 -4.460688e-01 -1.009168e+01 237 217 86
-6.635089e-01 -2.064918e-01 -8.746851e+00 15 32 0
-6.231999e-01 -2.222105e-01 -8.802029e+00 15 31 2
4.812969e-01 -4.100987e-01 -9.785836e+00 3 4 7
-1.826277e-02 7.526580e-01 -8.865839e+00 67 67 4
-4.646645e-01 6.085898e-01 -8.777038e+00 64 60 5
-4.796713e-01 4.378896e-01 -8.809710e+00 71 68 7
-4.802219e-01 4.351330e-01 -8.803338e+00 71 68 7
-4.806541e-01 4.358649e-01 -8.804103e+00 71 68 7
-6.100371e-01 4.165913e-01 -8.809934e+00 143 100 7
1.799693e-01 3.967233e-01 -9.138108e+00 63 64 0
-1.718094e+00 -2.515904e-01 -1.048452e+01 230 213 83
-1.898553e+00 -2.481768e-01 -1.040004e+01 188 163 34
-1.898292e+00 -2.486203e-01 -1.040078e+01 188 163 34
1.830781e+00 -3.245750e-01 -1.120737e+01 184 153 30
1.586266e-01 -6.568190e-01 -9.561694e+00 76 82 12
-1.623809e+00 -7.549796e-01 -9.398234e+00 235 236 142
4.307818e-01 -8.597477e-01 -9.793086e+00 127 135 60
-5.238907e-01 5.962343e-01 -8.787383e+00 57 25 0
2.270009e+00 -3.036695e-03 -1.202814e+01 210 186 59
-1.531700e+00 -4.151560e-01 -1.010204e+01 239 243 146
-7.198677e-01 -5.195204e-01 -8.829988e+00 29 51 13
-2.594258e-01 -1.138167e+00 -9.188138e+00 165 171 98
-4.419445e-01 5.488354e-01 -8.802965e+00 58 57 0
-5.648776e-01 3.592964e-01 -8.813605e+00 6 12 0
-4.986237e-01 -2.834266e-01 -8.790583e+00 16 33 0
9.690227e-01 -8.207070e-01 -9.992769e+00 226 229 126
3.575832e-01 -9.928283e-01 -9.506259e+00 166 176 87
-4.665042e-01 -7.458828e-01 -9.103740e+00 84 86 21
-3.168009e-01 -1.033527e+00 -9.160611e+00 34 49 8
2.281966e-01 4.859647e-01 -9.213834e+00 56 54 2
-8.334011e-01 -9.005977e-01 -8.993834e+00 26 38 0
-7.002635e-01 -7.205792e-01 -9.102578e+00 45 61 19
-3.397008e-01 8.271176e-01 -8.672015e+00 116 83 5
-4.007216e-01 8.031073e-01 -8.680719e+00 121 80 6
-5.181604e-01 7.821768e-01 -8.726891e+00 122 66 4
-5.526433e-01 6.751218e-01 -8.749348e+00 105 61 9
-5.323356e-01 6.685295e-01 -8.752446e+00 90 58 6
-1.790824e+00 9.320157e-01 -1.280068e+01 229 227 123
5.266858e-02 5.328772e-01 -9.076747e+00 70 71 4
-2.225726e+00 4.701085e-01 -1.187611e+01 215 203 86
-1.716972e+00 -3.230600e-01 -1.027025e+01 231 220 104
4.687080e-01 -8.923685e-01 -9.734183e+00 161 171 85
-4.778014e-01 7.812988e-01 -8.709485e+00 153 106 22
-2.202741e+00 4.568044e-02 -1.092180e+01 253 233 100
-2.202741e+00 4.568044e-02 -1.092180e+01 253 233 100
4.420386e-01 -2.218228e-02 -9.681653e+00 66 74 23
3.946071e-01 -5.137498e-02 -9.605624e+00 69 70 2
-1.990595e+00 -5.234406e-01 -9.808747e+00 235 212 89
-7.542112e-01 -1.047594e+00 -9.100197e+00 66 73 28
-6.818294e-01 -1.058063e+00 -9.125983e+00 73 82 29
-5.701668e-01 7.155207e-01 -8.780137e+00 121 73 0
-3.857260e-01 4.392548e-01 -8.786058e+00 50 53 6
-4.144320e-01 -6.576185e-03 -8.771975e+00 13 29 3
-4.163598e-01 7.198083e-01 -8.759201e+00 50 47 2
1.248627e-01 5.888106e-01 -9.156926e+00 55 53 3
-5.839670e-01 -1.822811e-01 -8.825422e+00 13 29 2
6.489251e-01 -8.384828e-01 -9.854462e+00 190 196 96
-9.329747e-01 -8.206894e-01 -9.138779e+00 50 68 26
-5.413977e-01 5.555526e-01 -8.812994e+00 107 71 3
-6.357046e-01 4.493580e-01 -8.804316e+00 116 72 2
-5.974711e-01 3.364179e-01 -8.802731e+00 10 24 2
-6.143516e-01 1.082724e-01 -8.889583e+00 4 15 1
-4.710712e-01 -1.095468e-01 -8.728868e+00 17 33 2
3.038392e-01 -2.923967e-01 -9.608899e+00 77 76 10
-8.711161e-01 -7.273483e-01 -8.990133e+00 44 62 22
-4.289147e-01 1.941519e-01 -8.913661e+00 18 28 0
-5.316345e-01 1.395017e-01 -8.985199e+00 47 55 6
-1.959029e+00 -1.857454e-01 -1.054044e+01 244 223 95
-3.478404e-01 -1.755392e-02 -8.734534e+00 18 31 0
-9.636247e-01 -3.436528e-01 -9.199977e+00 231 236 136
-5.905427e-01 -3.099919e-01 -8.769884e+00 21 41 3
-5.053761e-01 3.336725e-01 -8.858883e+00 51 58 2
-5.040113e-01 2.093460e-01 -8.901143e+00 52 60 3
1.448587e-01 -2.497621e-01 -9.566776e+00 84 86 13
5.194672e-01 -3.482606e-01 -9.529782e+00 1 6 0
-3.000450e-01 8.381268e-01 -8.681710e+00 106 82 12
-4.423484e-01 7.813895e-01 -8.691745e+00 119 82 7
-5.181012e-01 5.774248e-01 -8.821665e+00 71 42 2
-2.145118e+00 3.772961e-01 -1.150289e+01 232 216 99
1.667348e+00 -2.954797e-01 -1.136819e+01 215 203 82
-1.893344e+00 -2.409239e-01 -1.033970e+01 194 170 46
-1.933080e+00 -3.492853e-01 -1.020876e+01 235 214 87
-6.412701e-01 -1.051815e+00 -9.083691e+00 84 92 32
-9.449911e-01 -1.031996e+00 -9.041588e+00 167 169 82
-1.444450e-01 8.639742e-01 -8.699590e+00 97 80 2
-2.741657e-01 8.418747e-01 -8.659334e+00 154 125 38
-4.323587e-01 8.529537e-01 -8.698561e+00 147 89 0
-5.735288e-01 4.305185e-01 -8.822171e+00 100 65 0
-1.814781e+00 7.022191e-01 -1.221285e+01 236 217 94
-1.783422e+00 6.094558e-02 -1.110978e+01 215 196 65
-3.175953e-01 -1.077533e+00 -9.155065e+00 65 70 15
-4.223919e-01 8.395254e-01 -8.695338e+00 220 170 41
-5.745071e-01 5.836390e-01 -8.775097e+00 122 73 4
-5.925756e-01 4.887152e-01 -8.788693e+00 131 83 13
-6.282924e-01 4.752879e-01 -8.793257e+00 130 78 9
-6.916458e-01 4.729095e-01 -8.816636e+00 122 73 0
-5.538332e-01 4.439767e-01 -8.804991e+00 91 58 0
-6.303900e-01 3.552455e-01 -8.767635e+00 17 30 4
-5.056026e-01 -7.113096e-02 -8.743078e+00 8 26 2
-1.626849e+00 -5.725814e-02 -1.117062e+01 232 218 85
4.097720e-01 -7.737010e-01 -9.800923e+00 96 107 45
-7.015901e-01 -1.029805e+00 -9.212865e+00 52 60 13
-4.267417e-01 -1.068199e+00 -9.258198e+00 86 94 35
-4.419085e-03 7.271501e-01 -8.690603e+00 80 76 11
-6.830536e-01 5.323649e-01 -8.813238e+00 138 84 0
-4.466091e-01 4.448996e-01 -8.820839e+00 70 71 14
-6.874750e-01 4.250264e-01 -8.831760e+00 125 85 8
1.915929e+00 4.481843e-02 -1.213596e+01 216 198 70
-2.071676e+00 -7.261408e-02 -1.075761e+01 238 220 94
-6.471267e-01 -2.745159e-01 -8.819271e+00 10 28 3
-6.208403e-01 -3.294106e-01 -8.784407e+00 27 45 17
-2.395713e-01 -1.022043e+00 -9.172495e+00 159 169 98
-1.363199e-01 7.648505e-01 -8.664439e+00 26 44 4
-2.305442e-01 6.729203e-01 -8.578902e+00 29 47 7
1.878710e+00 -4.048657e-01 -1.116842e+01 247 235 128
-1.765145e+00 -5.067231e-01 -9.982360e+00 248 247 155
-4.128780e-01 -6.596199e-01 -9.059832e+00 89 91 18
-2.527334e-01 -9.873390e-01 -9.184550e+00 38 50 0
1.780252e+00 -2.069749e-01 -1.152821e+01 222 206 80
3.027857e-01 3.354541e-01 -9.356927e+00 59 59 0
2.119173e+00 -1.358817e-01 -1.180408e+01 190 155 25
-1.185303e+00 -1.853531e-01 -9.230793e+00 230 216 83
-4.573761e-01 8.080020e-01 -8.703201e+00 170 116 21
-1.759155e+00 8.924795e-01 -1.275742e+01 214 202 73
-6.663612e-01 2.244169e-01 -8.842057e+00 7 24 0
-1.879319e+00 -2.881646e-01 -1.030422e+01 239 211 85
-4.431930e-01 7.778807e-01 -8.678014e+00 121 82 10
-1.384966e-01 7.590947e-01 -8.647150e+00 16 37 0
-1.832474e+00 3.172062e-02 -1.103209e+01 200 180 45
-1.635765e+00 -1.456908e-01 -1.068428e+01 234 218 77
1.637569e-01 3.078783e-01 -9.213233e+00 65 66 0
-1.752952e+00 2.612344e-01 -1.146333e+01 231 214 72
1.470661e-01 1.344757e-01 -9.324002e+00 78 80 7
-4.181336e-01 8.172075e-01 -8.678620e+00 151 106 0
-5.195499e-01 2.519466e-01 -8.886054e+00 38 48 0
-5.738169e-01 6.228210e-01 -8.767386e+00 109 64 0
-6.531620e-01 4.405124e-01 -8.809289e+00 115 66 0
-1.031981e+00 -8.719101e-01 -8.961266e+00 220 226 128
-5.754130e-01 6.044553e-01 -8.769382e+00 114 67 0
-1.277357e+00 5.484273e-01 -1.226828e+01 203 184 55
-1.413297e+00 6.797149e-03 -1.108429e+01 215 203 87
-1.717474e+00 -3.038679e-01 -1.038075e+01 227 213 101
-3.517492e-02 7.880645e-01 -8.748842e+00 70 66 14
-1.198918e+00 2.816225e-01 -7.969295e+00 78 82 4
-1.233793e+00 1.546032e-01 -1.140027e+01 177 166 48
-1.718220e+00 -3.502894e-01 -1.028066e+01 253 253 154
6.514431e-02 -8.307537e-01 -9.577141e+00 77 83 33
-3.058409e-01 8.055528e-01 -8.685996e+00 73 65 9
3.029409e+00 -3.869603e-02 -1.207684e+01 95 104 53
-1.394218e+00 4.230855e-01 -1.192237e+01 195 176 48
-1.394084e+00 4.214096e-01 -1.190659e+01 195 176 48
-1.430203e+00 9.545926e-01 -1.311092e+01 244 228 93
-3.518626e-01 -1.135946e+00 -9.170212e+00 140 150 79
-1.462907e+00 6.830473e-01 -1.242355e+01 233 215 87
-6.061668e-01 -3.600037e-01 -8.784874e+00 13 36 0
-4.330669e-01 -8.342547e-01 -9.146579e+00 59 62 5
-6.988814e-01 -2.549295e-01 -8.794717e+00 13 31 0
-5.723694e-01 3.705036e-01 -8.847168e+00 14 13 9
-1.724841e+00 -4.303883e-02 -1.083768e+01 238 220 94
-1.547837e+00 -4.393374e-01 -1.015742e+01 243 247 162
7.301182e-01 -1.102722e+00 -9.273438e+00 205 217 117
-3.223796e-01 -1.119379e+00 -8.981532e+00 174 186 104
-4.387942e-01 1.041619e+00 -9.009900e+00 234 178 9
-2.973098e-01 8.373276e-01 -8.677294e+00 110 79 10
4.087398e+00 6.456927e-01 -1.536549e+01 83 85 75
-6.515660e-01 2.338149e-01 -8.827610e+00 10 22 4
-2.003585e+00 -1.129046e-01 -1.066777e+01 245 225 94
-2.026596e+00 -4.159932e-01 -1.003057e+01 206 177 47
-3.458455e-01 -1.017712e+00 -9.124080e+00 37 50 10
-2.747071e-01 8.471288e-01 -8.671466e+00 157 118 27
-2.203150e+00 1.580413e-02 -1.093065e+01 229 209 78
-2.226018e+00 1.162037e-01 -1.108898e+01 233 210 73
-1.831513e+00 3.296809e-02 -1.103077e+01 200 180 45
6.047174e-01 -9.377668e-01 -9.643414e+00 198 209 107
-2.221298e+00 -2.249716e-01 -1.040691e+01 248 224 92
5.026380e-01 -1.985062e-01 -9.652481e+00 228 234 136
-4.101102e-01 -1.021910e+00 -9.110301e+00 85 92 43
2.845819e+00 9.882479e-02 -1.236830e+01 195 182 71
2.290790e+00 3.042453e-01 -1.266417e+01 168 147 40
2.241928e+00 3.401810e-01 -1.266953e+01 217 197 68
-3.887409e-01 8.088851e-01 -8.668787e+00 120 84 11
-3.737202e-01 8.016034e-01 -8.682562e+00 90 64 0
7.112312e+00 1.831352e+00 -1.724481e+01 142 172 163
-7.656520e-01 4.219258e-01 -8.913311e+00 38 51 4
-1.521462e+00 -9.490992e-02 -1.080501e+01 217 205 88
-2.109025e+00 -2.470023e-01 -1.037506e+01 187 172 43
7.190632e+00 1.924102e+00 -1.739798e+01 227 255 251
6.904575e+00 1.869120e+00 -1.727135e+01 128 161 140
-1.858724e+00 1.195461e-01 -1.108025e+01 237 219 95
-2.235217e+00 -6.029689e-02 -1.072857e+01 244 232 96
-3.048521e-01 -1.019546e+00 -9.143360e+00 40 54 18
-7.332484e-01 4.771252e-01 -8.870380e+00 135 90 0
-1.456784e+00 2.717609e-02 -1.109591e+01 236 217 96
-1.760224e+00 2.673391e-01 -1.155378e+01 234 214 91
-1.437184e+00 1.241194e-01 -1.131269e+01 229 214 88
6.446186e-01 -7.966827e-01 -9.949194e+00 185 197 110
-1.464748e+00 5.558198e-01 -1.218318e+01 216 197 69
-1.506089e+00 -4.846731e-02 -1.096277e+01 224 209 88
-5.716885e-01 1.618475e+00 -1.261251e+01 97 103 58
-5.693002e-01 1.544022e+00 -1.268560e+01 13 21 0
-1.083259e+00 1.027157e+00 -1.317395e+01 191 165 44
-8.971150e-01 9.745397e-01 -1.322185e+01 215 186 68
-1.837356e+00 8.234799e-01 -1.257009e+01 197 182 80
-1.288938e+00 5.681099e-01 -1.226088e+01 228 195 79
-9.900477e-01 4.099899e-01 -1.200906e+01 179 159 45
-9.900477e-01 4.099899e-01 -1.200906e+01 179 159 45
2.667156e+00 -4.358388e-01 -1.129606e+01 192 159 60
2.409123e+00 -4.710954e-01 -1.112755e+01 191 161 63
-1.282938e+00 1.186268e-01 -1.136056e+01 191 168 55
2.166121e+00 -7.128983e-01 -1.051465e+01 240 219 121
1.954739e-01 -3.513954e-01 -9.515546e+00 88 84 13
-4.183841e-01 -1.106994e+00 -9.112068e+00 115 121 59
-3.476982e-01 -1.129422e+00 -9.079726e+00 157 159 89
-2.757120e-01 8.459968e-01 -8.666388e+00 160 126 36
-5.478105e-01 1.529267e+00 -1.280045e+01 134 142 104
-8.125837e-01 5.896157e-01 -9.173437e+00 151 113 42
-1.031213e+00 1.320191e+00 -1.377777e+01 250 228 109
-1.043467e+00 1.307054e+00 -1.372896e+01 255 233 113
3.080971e+00 -2.627014e-01 -1.170340e+01 225 189 92
-8.114897e-01 4.842805e-01 -1.217740e+01 204 179 60
2.886370e+00 -4.374700e-01 -1.142172e+01 213 179 73
-2.055262e+00 6.040830e-01 -1.210201e+01 216 204 90
2.373483e+00 -5.276784e-01 -1.103018e+01 193 165 68
2.337933e+00 -6.507697e-01 -1.074247e+01 189 162 62
-1.813344e+00 6.110025e-02 -1.101387e+01 253 228 107
2.862589e-02 -4.812183e-01 -9.436532e+00 82 79 10
-1.824075e+00 -2.285410e-01 -1.051074e+01 236 211 85
-2.781325e-01 8.645771e-01 -8.674758e+00 142 96 0
3.603912e-01 7.569697e-01 -8.930499e+00 43 50 15
-2.139164e-02 4.388012e-01 -8.302399e+00 25 34 4
-5.887034e-01 1.591879e+00 -1.265494e+01 28 36 0
-6.248751e-01 4.733659e-01 -8.792080e+00 128 79 0
-7.328260e-01 4.833478e-01 -8.860041e+00 148 85 0
-2.933801e-01 1.332748e-01 -8.759922e+00 37 47 7
3.396603e+00 -1.565332e-01 -1.205494e+01 144 116 36
-1.810943e+00 6.019465e-01 -1.208233e+01 242 216 93
5.881401e-01 -1.981777e-01 -9.475910e+00 28 32 5
-1.615220e+00 2.737024e-01 -1.152726e+01 255 229 110
2.743127e+00 -8.153398e-01 -1.061085e+01 198 162 50
2.194906e+00 -8.167415e-01 -1.043351e+01 213 195 83
-8.441821e-01 -4.096985e-01 -8.896338e+00 49 61 24
5.650669e-01 -8.517328e-01 -9.838849e+00 180 178 89
-8.253993e-01 -6.902815e-01 -8.895648e+00 34 48 13
2.612860e-01 -1.140252e+00 -9.201335e+00 193 194 101
-6.419931e-01 7.604701e-01 -8.862513e+00 206 127 0
-6.718577e-01 7.238209e-01 -8.856313e+00 218 141 3
-7.030355e-01 6.101016e-01 -8.854551e+00 176 104 4
-1.222299e+00 1.041129e+00 -1.322706e+01 241 216 95
3.531872e+00 -1.739057e-01 -1.201630e+01 126 101 21
-1.592244e+00 7.854504e-01 -1.282846e+01 253 227 106
-1.570665e+00 6.672387e-01 -1.232366e+01 236 210 89
-1.158780e+00 2.954947e-01 -1.174493e+01 236 215 93
2.958606e+00 -7.045541e-01 -1.086849e+01 191 153 46
4.874158e-01 -4.034470e-01 -9.770597e+00 2 8 0
-1.776677e+00 1.118103e-01 -1.119924e+01 255 231 110
3.306328e-01 -1.043376e+00 -9.431887e+00 184 183 93
-3.048167e-01 -1.111309e+00 -9.156285e+00 94 95 35
-9.037164e-01 -8.839264e-01 -8.930196e+00 38 52 14
-6.910253e-01 6.960655e-01 -8.873338e+00 188 114 0
-6.249170e-01 6.172701e-01 -8.756219e+00 164 104 2
-4.477732e-01 4.671233e-01 -8.803544e+00 52 45 0
-6.911981e-01 4.801747e-01 -8.828066e+00 117 61 0
-9.486342e-01 1.024026e+00 -1.314950e+01 231 200 84
-9.885233e-01 9.209794e-01 -1.301280e+01 209 177 59
-1.431598e+00 9.448876e-01 -1.307290e+01 251 226 108
-1.037767e+00 7.663086e-01 -1.268540e+01 225 195 75
-1.669397e+00 5.671959e-01 -1.214236e+01 235 213 93
-1.436567e+00 4.652846e-01 -1.201743e+01 253 222 105
2.817232e+00 -4.529677e-01 -1.140139e+01 219 187 84
-1.199817e+00 3.646553e-01 -1.184544e+01 226 204 82
-5.439500e-01 -1.131200e-01 -8.732491e+00 23 32 4
-1.982985e+00 1.618994e-01 -1.123462e+01 246 229 97
-6.750370e-01 -3.161937e-01 -8.826772e+00 27 37 12
-6.109454e-01 -4.041542e-01 -8.794145e+00 33 45 6
5.141025e-01 -1.006632e+00 -9.526464e+00 196 193 100
-5.613970e-01 5.358480e-01 -8.800913e+00 126 83 3
-5.119361e-01 5.347974e-01 -8.825742e+00 49 23 0
-6.374958e-01 4.498706e-01 -8.803669e+00 118 70 4
-6.401922e-01 4.487877e-01 -8.796665e+00 118 70 4
-5.420071e-01 4.274432e-01 -8.816238e+00 74 44 0
-7.210823e-01 4.510509e-01 -8.863905e+00 144 89 0
-7.462111e-01 4.254455e-01 -8.894413e+00 34 23 0
-6.640070e-01 2.760689e-01 -8.838754e+00 31 48 16
-6.640070e-01 2.760689e-01 -8.838754e+00 31 48 16
-3.549310e-01 -2.075574e-02 -8.766251e+00 30 36 0
-4.129875e-01 -4.096017e-02 -8.747700e+00 30 40 5
-4.656680e-01 -1.136900e-01 -8.755794e+00 29 39 4
-6.986185e-01 -1.790192e-01 -8.770399e+00 33 46 14
-6.742415e-01 -1.990724e-01 -8.755317e+00 18 28 1
-7.668460e-01 -3.527907e-01 -8.841697e+00 21 32 0
-6.958152e-01 -4.567566e-01 -8.841138e+00 29 47 9
-1.830947e+00 -2.626150e-01 -1.040793e+01 239 214 89
-1.147121e+00 -7.888850e-01 -9.540940e+00 233 228 136
-6.249303e-01 7.989047e-01 -8.871663e+00 228 149 4
-6.498948e-01 7.060930e-01 -8.835051e+00 217 140 0
-5.880807e-01 -3.153120e-01 -8.796476e+00 34 48 12
-5.554765e-01 -3.834199e-01 -8.806329e+00 30 38 1
-7.411323e-01 -4.393936e-01 -8.824417e+00 1 15 0
4.679396e-01 -1.077684e+00 -9.329699e+00 210 207 114
-5.985663e-01 2.620314e-01 -8.825196e+00 1 5 1
-6.860867e-01 2.691942e-01 -8.866874e+00 30 50 15
-6.850832e-01 2.695618e-01 -8.870582e+00 30 50 15
2.418969e+00 -4.805970e-01 -1.103361e+01 186 156 56
-5.037749e-01 -2.996536e-01 -8.811074e+00 24 34 0
5.051119e-01 -5.569316e-01 -9.787050e+00 17 20 3
5.795337e-01 -8.586928e-01 -9.780982e+00 195 191 100
-1.167077e+00 5.121031e-01 -1.236531e+01 237 215 93
-5.597553e-01 4.346464e-01 -8.827462e+00 103 64 0
-1.896743e+00 -7.718978e-02 -1.079053e+01 247 213 89
-1.994487e+00 -1.543567e-01 -1.060512e+01 254 226 104
-1.864833e+00 -2.679349e-01 -1.034877e+01 244 209 83
-8.496578e-01 -7.445636e-01 -9.631295e+00 100 98 38
-1.460094e-01 8.516329e-01 -8.697414e+00 96 78 21
-5.956862e-01 1.585206e+00 -1.449159e+01 232 214 112
-5.086168e-01 8.373900e-01 -8.856938e+00 207 124 0
-5.717974e-01 1.295716e+00 -1.384828e+01 214 177 62
-4.324965e-01 7.857810e-01 -8.700954e+00 123 77 5
-1.017878e+00 1.007856e+00 -1.315298e+01 237 200 70
-4.920243e-01 8.492213e-01 -1.305139e+01 114 90 24
-1.074229e+00 5.753273e-01 -1.229956e+01 215 178 43
-1.258320e+00 5.958353e-01 -1.226303e+01 230 189 55
-1.220463e+00 5.824501e-01 -1.238638e+01 214 175 40
-5.568423e-01 3.835100e-01 -1.197226e+01 205 163 27
-1.502577e+00 5.332219e-01 -1.205180e+01 225 190 56
-4.268783e-01 1.436886e-01 -8.617430e+00 35 39 6
-1.969972e+00 -1.089942e-01 -1.064737e+01 199 168 41
-1.969972e+00 -1.089942e-01 -1.064737e+01 199 168 41
-1.055137e+00 1.700967e+00 -1.457649e+01 235 226 130
-6.576697e-01 6.409539e-01 -8.823769e+00 177 100 4
-1.774970e+00 8.976071e-01 -1.280383e+01 215 187 68
-5.254515e-01 4.741353e-01 -8.834706e+00 63 33 0
-4.513766e-01 3.229359e-01 -1.193732e+01 198 160 28
6.734666e-01 -1.457054e-01 -9.570980e+00 4 9 0
-2.836612e-01 -1.082197e+00 -9.116423e+00 153 153 90
-1.062120e+00 1.033432e+00 -1.310947e+01 199 164 36
-7.635456e-01 7.564715e-01 -1.278495e+01 213 175 50
-8.683978e-01 5.267969e-01 -1.225715e+01 185 148 18
-1.827923e+00 6.816940e-01 -1.228887e+01 230 193 60
2.663068e+00 -2.378402e-01 -1.167155e+01 191 155 43
2.711820e+00 -2.964348e-01 -1.155582e+01 194 153 39
2.190883e-01 1.859846e+00 -1.256586e+01 7 1 5
-5.939130e-01 8.041301e-01 -8.844947e+00 189 103 0
-2.117799e+00 1.569579e-01 -1.117183e+01 241 206 76
-2.071813e+00 1.119005e-01 -1.111880e+01 236 201 73
-2.204540e+00 5.132135e-02 -1.094628e+01 255 227 97
2.318897e-01 -9.795147e-01 -9.573320e+00 174 167 87
-5.039307e-01 7.942289e-01 -8.709012e+00 99 30 0
-1.419389e+00 1.073034e+00 -1.332578e+01 245 213 78
-6.864991e-01 4.279928e-01 -8.822659e+00 130 81 4
-1.381872e+00 2.008161e-01 -1.144711e+01 228 199 61
-1.980994e+00 2.294705e-01 -1.123852e+01 236 203 72
-9.577995e-01 6.554510e-01 -1.244731e+01 209 172 40
-1.225188e+00 -7.991401e-01 -9.527143e+00 238 232 138
-1.220158e+00 -6.757819e-01 -9.757207e+00 229 223 127
-6.695406e-01 -1.671157e-01 -8.960034e+00 1 8 0
-2.024960e+00 -2.641038e-01 -1.039370e+01 251 220 98
-1.434696e-01 -1.290448e+00 -9.372064e+00 190 181 102
-1.339401e+00 6.093987e-01 -1.224938e+01 214 170 37
-2.072905e+00 -2.792750e-03 -1.094482e+01 254 226 101
-9.852637e-01 8.825009e+00 -3.670777e+01 57 69 27
-3.203009e+00 1.053769e+01 -3.928706e+01 76 86 56
-3.420604e-01 1.039535e+01 -4.034863e+01 0 6 0
-2.900491e+00 9.981743e+00 -3.948340e+01 3 15 0
-2.772444e+00 9.737003e+00 -3.970719e+01 96 106 53
-6.182378e+00 4.486033e+00 -2.857465e+01 87 95 26
4.306805e+00 2.312008e+00 -1.741416e+01 223 214 109
-5.899880e+00 3.983028e+00 -2.788431e+01 88 104 37
-5.636257e+00 3.430143e+00 -2.739519e+01 110 128 66
1.800137e+00 1.206474e+01 -4.558676e+01 106 122 75
-2.722758e+00 1.002526e+01 -3.959299e+01 131 141 104
-3.758927e+00 9.705881e+00 -3.968079e+01 84 100 51
-4.508707e+00 5.446320e+00 -3.034894e+01 44 53 0
-3.210368e+00 9.559073e+00 -3.943763e+01 91 106 50
5.910461e+00 1.963430e+01 -4.928410e+01 189 214 132
9.899483e+00 1.970831e+01 -5.007470e+01 217 233 143
4.517694e+00 2.305385e+00 -1.754137e+01 215 203 93
3.451896e+00 1.346530e+00 -1.514260e+01 18 23 4
2.488015e+01 6.445223e+00 -5.227850e+01 99 112 81
2.943484e+00 8.325216e-01 -1.394949e+01 28 35 11
4.100450e+00 7.079924e-01 -1.414780e+01 110 119 88
3.672706e+00 6.033236e-01 -1.365683e+01 9 20 0
3.607707e+00 5.134873e-01 -1.346733e+01 4 7 2
3.114980e+00 2.557045e-01 -1.291190e+01 175 160 47
2.993606e+00 1.866838e-01 -1.264381e+01 147 131 33
2.778367e+00 6.544533e-01 -1.351037e+01 57 57 5
2.616684e+00 6.344934e-01 -1.342131e+01 193 187 97
7.701197e+00 1.913871e+01 -4.866000e+01 184 202 126
3.142608e+00 3.686983e-01 -1.307141e+01 112 99 3
3.401202e+00 3.044813e-01 -1.304623e+01 124 109 17
7.772585e+00 1.876272e+01 -4.864706e+01 82 98 23
2.989587e+00 7.633429e-01 -1.379070e+01 7 10 1
4.562143e+00 2.121432e+00 -1.716550e+01 171 160 55
1.135681e+00 2.070673e+01 -4.996250e+01 173 207 126
2.503067e+01 1.615229e+01 -4.505321e+01 162 152 98
1.027733e+01 2.014382e+01 -5.154288e+01 151 169 82
2.172850e+00 1.563578e+01 -4.277298e+01 163 173 79
-2.325932e-01 1.553009e+01 -4.457486e+01 162 159 116
-1.850103e+00 1.628071e+01 -4.615802e+01 2 9 0
-2.796022e+00 1.309084e+01 -3.934015e+01 117 126 103
-2.796022e+00 1.309084e+01 -3.934015e+01 117 126 103
-1.559611e+00 1.585775e+01 -4.693508e+01 150 159 127
-3.467551e+00 1.184568e+01 -3.922450e+01 70 91 33
-3.373026e+00 1.083403e+01 -3.849491e+01 78 96 52
-3.116839e+00 1.078573e+01 -3.980101e+01 4 13 0
3.360140e+00 2.002566e+01 -4.922962e+01 189 219 139
1.386639e+00 1.403106e+01 -3.884436e+01 56 67 0
1.386639e+00 1.403106e+01 -3.884436e+01 56 67 0
2.291917e+00 1.563603e+01 -4.315551e+01 123 129 25
-2.924300e+00 1.443315e+01 -3.965447e+01 84 85 9
-1.740177e+00 1.605254e+01 -4.504972e+01 64 70 21
-2.420810e+00 1.525400e+01 -4.403108e+01 18 32 0
-1.684026e+00 1.593968e+01 -4.675450e+01 8 21 0
-2.832174e+00 1.291355e+01 -3.939675e+01 7 19 1
-1.736013e+00 1.552612e+01 -4.668071e+01 1 8 0
-1.736013e+00 1.552612e+01 -4.668071e+01 1 8 0
-2.050942e+00 1.496491e+01 -4.720253e+01 156 166 109
-3.386224e+00 1.182349e+01 -3.963798e+01 13 31 0
-2.416862e+00 1.430305e+01 -4.331989e+01 159 182 130
-2.416862e+00 1.430305e+01 -4.331989e+01 159 182 130
-2.867422e+00 1.256271e+01 -3.920604e+01 157 170 126
1.077020e+01 4.867016e+00 -2.359477e+01 4 14 0
-3.231710e+00 1.072599e+01 -4.005200e+01 74 86 54
1.540346e+01 6.568909e+00 -2.763106e+01 236 254 244
-3.501130e+00 9.138348e+00 -3.890125e+01 87 107 54
6.493020e+00 1.335863e+00 -1.601087e+01 68 98 73
-1.635262e+00 1.608115e+01 -4.590274e+01 5 14 0
-2.152951e+00 1.550334e+01 -4.456511e+01 159 171 115
-2.489384e+00 1.798813e+01 -4.576507e+01 16 28 3
-1.079873e+00 1.665170e+01 -4.347318e+01 12 16 0
-2.183041e+00 1.453305e+01 -3.929325e+01 255 255 189
-3.170013e+00 1.053795e+01 -3.821151e+01 1 14 5
-3.443691e+00 1.013538e+01 -3.945265e+01 1 7 1
-2.466676e+00 1.507009e+01 -4.203543e+01 17 20 0
-2.662311e+00 1.396821e+01 -4.189692e+01 2 12 4
-5.664799e-01 1.623077e+00 -1.263164e+01 97 103 58
-1.461426e+00 -9.865343e-02 -1.082614e+01 255 250 150
1.899893e+01 1.689132e+00 -3.088822e+01 72 103 68
4.363681e+00 -1.981705e-01 -1.225892e+01 123 97 10
3.548609e+00 -2.042208e-01 -1.198282e+01 141 110 27
4.191527e+00 -3.657375e-01 -1.190416e+01 132 103 9
-1.361136e+00 6.670660e-01 -1.238364e+01 207 176 59
3.446371e+00 -6.817616e-01 -1.105600e+01 196 163 56
2.831252e+01 8.934989e+00 -3.422408e+01 152 204 166
4.056805e+00 -1.332693e-01 -1.222603e+01 130 106 19
4.056805e+00 -1.332693e-01 -1.222603e+01 130 106 19
4.282138e+00 -2.363722e-01 -1.224739e+01 190 165 66
4.282138e+00 -2.363722e-01 -1.224739e+01 190 165 66
3.944357e+00 -2.942047e-01 -1.185623e+01 116 85 3
3.908957e+00 -1.715821e-01 -1.213061e+01 204 181 86
3.023639e+00 -7.331231e-01 -1.069804e+01 195 158 51
2.669889e+01 7.846318e+00 -3.137269e+01 159 216 175
3.772298e+00 -2.437085e-01 -1.197572e+01 120 92 10
-6.409427e-01 -2.668045e-01 -8.807089e+00 18 28 1
-1.595068e+00 -2.721964e-02 -1.097493e+01 235 210 91
-1.420058e+00 1.495418e+00 -1.518057e+01 156 152 63
-1.963121e+00 -1.652395e-01 -1.062084e+01 254 220 100
-2.348111e-01 -8.727092e-01 -9.216733e+00 142 138 67
-1.447177e+00 1.189238e+00 -1.284770e+01 239 217 97
-4.854337e-01 7.374928e-01 -8.706279e+00 84 49 0
-1.974632e+00 1.103568e-01 -1.114134e+01 228 198 68
-1.542764e+00 3.465641e-01 -1.172437e+01 253 223 89
-1.990666e+00 -5.150841e-01 -9.801328e+00 242 211 87
-5.683550e-01 9.105594e-01 -1.305913e+01 208 176 63
-1.593811e+00 7.318818e-01 -1.245612e+01 255 226 90
-1.116731e+00 5.413238e-01 -1.222467e+01 248 212 76
-1.851974e+00 5.814584e-01 -1.207155e+01 244 207 74
-1.709417e+00 1.800892e-01 -1.133726e+01 255 224 91
2.472578e-01 1.782564e+00 -1.246410e+01 87 82 45
-1.515182e-01 1.107918e+00 -1.268912e+01 154 147 76
-1.416409e+00 1.066802e+00 -1.325930e+01 245 213 78
3.493226e-01 -1.055089e+00 -9.379584e+00 201 194 106
9.431722e-01 -8.209153e-01 -9.940189e+00 230 222 131
-1.760773e+00 -3.393221e-01 -1.030418e+01 244 218 92
-1.168509e+00 4.794362e-01 -1.217168e+01 243 209 73
-1.611092e+00 3.380291e-01 -7.000343e+00 206 165 49
5.966486e-01 -4.888010e-02 -9.685714e+00 241 232 144
-2.286062e-01 8.339156e-01 -8.650113e+00 128 106 29
-3.628078e-01 8.213964e-01 -8.692448e+00 126 80 7
-4.242378e-01 7.943504e-01 -8.678370e+00 133 79 10
2.253144e-01 1.990644e+00 -1.259745e+01 119 120 64
4.170197e-02 3.119640e+00 -1.763525e+01 133 123 44
-4.156717e-01 1.417921e+00 -1.244172e+01 32 31 10
-9.581974e-01 1.384997e+00 -1.390368e+01 254 222 93
2.938298e+00 -3.142727e-01 -1.154110e+01 197 159 58
-5.692421e-01 8.220434e-03 -8.959173e+00 25 31 4
2.831051e+00 -6.501530e-01 -1.079600e+01 189 159 47
-1.333525e+00 8.345290e-02 -1.116610e+01 191 167 45
-1.857165e+00 -3.125239e-01 -1.029981e+01 252 218 92
-1.906248e+00 -3.793999e-01 -1.017251e+01 249 215 92
-3.261149e-01 8.208162e-01 -8.675039e+00 95 59 0
2.577090e-01 1.929119e+00 -1.262440e+01 129 126 78
6.560202e-02 3.157764e+00 -1.757562e+01 241 230 142
6.992125e+00 1.107497e-02 -1.699065e+01 124 99 16
3.612294e+00 -2.202591e-01 -1.215172e+01 187 156 58
3.348262e+00 -2.535860e-01 -1.191101e+01 186 152 44
-5.364835e-02 5.097834e-01 -1.243426e+01 163 129 17
2.346565e+00 -5.859904e-01 -1.083157e+01 237 217 123
-1.910397e+00 -3.618866e-01 -1.020183e+01 232 198 75
-1.970850e+00 -5.179904e-01 -9.869536e+00 241 216 91
-5.660546e-01 8.557759e-01 -8.816322e+00 238 153 7
-6.948233e-01 6.222122e-01 -8.826511e+00 187 104 3
-7.823359e-01 5.509490e-01 -9.026262e+00 170 98 0
-5.975579e-03 1.160430e+00 -1.259658e+01 65 62 3
-5.975579e-03 1.160430e+00 -1.259658e+01 65 62 3
6.931676e-02 1.066165e+00 -1.269681e+01 66 67 5
7.197727e-02 1.066976e+00 -1.270586e+01 66 67 5
-1.287241e+00 2.683477e-01 -8.521063e+00 29 21 2
-4.372081e-01 6.778027e-01 -1.271934e+01 144 114 0
4.863983e-01 -4.075471e-01 -9.758686e+00 4 2 0
-1.362924e+00 4.095126e-02 -1.115259e+01 194 171 48
-7.652488e-01 5.050885e-01 -8.918341e+00 164 90 0
-7.943391e-01 4.071943e-01 -8.878099e+00 42 47 7
-1.243322e+00 1.185114e+00 -1.344080e+01 246 215 91
-3.319170e-01 3.817906e-01 -1.212032e+01 212 173 37
2.671707e+00 -5.785015e-01 -1.088189e+01 207 180 67
-1.545590e+00 2.923396e-01 -1.163070e+01 214 183 56
-6.050034e-01 -6.012166e-01 -8.868016e+00 49 55 17
-9.467538e-01 -1.020798e+00 -9.149840e+00 163 155 82
-7.143061e-01 5.952301e-01 -8.855261e+00 174 94 0
-6.090700e-02 1.132561e+00 -1.267782e+01 54 61 15
3.385339e+00 -6.066387e-01 -1.133876e+01 211 181 69
-1.447888e+00 4.590313e-01 -1.195446e+01 252 222 92
-1.739348e+00 2.500707e-01 -1.134251e+01 247 214 88
-1.577150e+00 -7.078937e-02 -1.082734e+01 244 215 88
-1.634885e+00 -1.434982e-01 -1.073228e+01 243 214 84
-7.612693e-01 4.703340e-01 -8.917208e+00 168 103 12
-1.067967e-01 1.220699e+00 -1.266624e+01 147 143 70
-1.067967e-01 1.220699e+00 -1.266624e+01 147 143 70
-5.764814e-01 2.632384e-01 -8.895578e+00 4 6 0
-1.568510e+00 -1.326094e-01 -1.071188e+01 232 202 84
3.732417e-01 -1.055812e+00 -9.313702e+00 200 194 106
-1.003170e+00 -7.626577e-01 -9.628617e+00 218 209 112
-9.605092e-01 -9.981897e-01 -9.226909e+00 166 159 79
-8.148507e-01 5.094532e-01 -9.226706e+00 162 157 76
-5.185510e-01 2.308347e-01 -8.901151e+00 64 62 10
-7.333536e-01 2.215826e-01 -8.907817e+00 18 31 1
-1.494594e+00 -5.624176e-02 -1.091397e+01 225 199 75
-8.528903e-01 -4.054431e-01 -9.307328e+00 61 70 27
-6.971690e-01 -4.539332e-01 -8.821662e+00 35 46 17
-6.087876e-01 8.597481e-01 -8.867568e+00 195 103 2
-8.094536e-01 -6.410573e-01 -8.868259e+00 36 47 17
-1.067489e-01 1.026493e+00 -1.276287e+01 153 146 66
-4.613356e-01 6.610504e-01 -1.278676e+01 168 131 13
-5.981589e-01 3.516016e-01 -8.925205e+00 9 18 0
2.377836e-01 -1.119604e+00 -9.169762e+00 200 194 106
-7.376730e-01 5.888519e-01 -9.037491e+00 186 107 2
4.390867e+01 3.331215e+00 -5.993959e+01 68 92 56
-7.223643e-01 3.977890e-01 -8.874674e+00 27 31 7
-2.708655e-01 8.108671e-01 -1.261602e+01 25 18 1
-3.464261e-01 1.035613e+00 -1.263273e+01 30 29 0
-7.135802e-01 5.426745e-01 -8.836302e+00 176 100 6
8.216883e+00 8.767006e+00 -2.919449e+01 53 60 8
6.296499e+00 7.000937e+00 -2.605387e+01 54 59 41
-1.511202e-01 1.407087e+00 -1.249668e+01 13 17 0
-1.511202e-01 1.407087e+00 -1.249668e+01 13 17 0
5.911291e-01 9.711044e-01 -1.252497e+01 91 89 12
5.883745e-01 9.706774e-01 -1.251852e+01 91 89 12
3.901690e+00 -7.571640e-01 -1.105624e+01 202 173 56
-2.046720e-01 3.955431e-01 -1.217229e+01 183 146 6
-1.027724e+00 4.058734e-01 -1.197179e+01 236 215 90
-1.185582e+00 2.292763e-01 -1.155618e+01 215 186 66
-1.899841e+00 -2.849451e-01 -1.034971e+01 198 166 47
-7.995829e-01 2.766383e-01 -8.933240e+00 25 42 9
-1.880805e+00 -3.204799e-01 -1.029518e+01 228 201 70
-7.732250e-01 4.272002e-01 -8.952844e+00 36 44 5
4.425829e-01 1.009070e+00 -1.257038e+01 92 90 16
3.824717e+00 -7.600338e-01 -1.105755e+01 185 155 40
3.001247e+00 -1.046714e+00 -1.026833e+01 191 170 53
2.590759e-01 1.064160e+00 -1.261913e+01 113 113 41
5.674655e-01 9.741415e-01 -1.253950e+01 90 88 11
5.674655e-01 9.741415e-01 -1.253950e+01 90 88 11
-1.372755e-01 9.935522e-01 -1.284973e+01 140 140 72
-1.584758e-01 9.889740e-01 -1.279494e+01 140 140 72
1.757395e-01 6.465608e-01 -1.279215e+01 107 87 21
1.911021e-01 5.250467e-01 -1.256148e+01 124 97 0
-1.845481e+00 -3.129375e-01 -1.033092e+01 246 222 88
3.614430e-01 1.966968e+00 -1.268850e+01 4 6 0
3.632690e-01 1.810006e+00 -1.249854e+01 3 3 9
-6.928339e-01 4.779906e-01 -8.827178e+00 101 43 1
5.021565e-01 9.297348e-01 -1.258011e+01 140 138 61
5.029520e+00 -5.459072e-01 -1.182062e+01 96 84 2
4.426514e-01 5.431976e-01 -1.266764e+01 94 74 4
-1.904581e+00 -3.588651e-02 -1.084679e+01 197 173 46
-7.846832e-01 4.531535e-01 -8.962825e+00 39 30 0
8.368876e-02 1.174879e+00 -1.261807e+01 150 153 81
2.235599e-01 1.144003e+00 -1.261207e+01 153 155 77
1.336290e-01 1.094227e+00 -1.263320e+01 43 53 7
1.336290e-01 1.094227e+00 -1.263320e+01 43 53 7
-1.072344e+00 3.250845e-01 -1.177396e+01 163 136 18
-8.287766e-01 -4.463198e-01 -8.890129e+00 19 32 1
-8.173296e-01 -5.012600e-01 -8.892595e+00 24 38 5
-1.980866e+00 -2.798934e-01 -1.037080e+01 237 209 86
-1.057916e-01 5.536186e-01 -1.255325e+01 155 126 7
-2.310281e-02 1.080088e+00 -1.270148e+01 149 159 96
2.223736e+01 3.381385e+00 -3.120594e+01 150 151 47
2.360445e+01 1.538621e+01 -4.211116e+01 146 96 53
2.185541e+01 2.740288e+00 -3.025704e+01 162 129 0
2.311213e+01 1.505264e+01 -4.250121e+01 175 147 97
2.354797e+01 1.493543e+01 -4.248185e+01 129 102 51
2.213269e+01 1.567000e+01 -4.235692e+01 173 157 98
2.508866e+01 1.541156e+01 -4.256678e+01 168 145 95
2.508866e+01 1.541156e+01 -4.256678e+01 168 145 95
2.508866e+01 1.541156e+01 -4.256678e+01 168 145 95
2.266905e+01 1.507266e+01 -4.270751e+01 146 121 64
-4.249906e-01 6.499909e-01 -7.935084e+00 149 159 95
2.202006e+01 2.870605e+00 -3.066783e+01 193 170 22
2.490904e+01 1.442352e+01 -4.159170e+01 158 151 113
-7.647069e-01 4.399149e-01 -8.920379e+00 55 33 0
2.488344e-01 -3.090356e-01 -8.055569e+00 189 164 56
2.653611e+01 2.358274e+00 -3.197423e+01 193 180 27
1.829882e+01 4.926535e-01 -2.057270e+01 127 135 87
3.350431e-01 1.040061e+00 -1.258735e+01 108 104 33
-7.993809e-01 2.598871e-01 -8.933099e+00 23 37 1
4.057909e+00 -6.866547e-01 -1.130089e+01 201 171 57
2.826167e+00 -8.377093e-01 -1.061417e+01 183 151 38
3.084594e+00 -1.032380e+00 -1.028327e+01 191 169 52
1.472690e-02 1.166015e+00 -1.261496e+01 54 62 2
5.108133e-01 9.897417e-01 -1.254855e+01 88 86 11
5.225842e-01 9.570924e-01 -1.256396e+01 134 132 55
5.771929e+00 -4.001567e-01 -1.244394e+01 186 171 80
5.566669e+00 -4.025634e-01 -1.252266e+01 115 96 3
-9.839095e-01 4.454251e-01 -9.859008e+00 21 19 3
4.337537e+00 -5.426525e-01 -1.175396e+01 195 168 53
-4.339631e-01 7.190361e-01 -1.301809e+01 151 123 0
-1.066402e-01 4.797308e-01 -1.238388e+01 156 125 0
4.212973e+00 -9.634547e-01 -1.103934e+01 172 147 28
1.416359e-01 -7.568749e-01 -8.152259e+00 214 213 119
-7.380099e-01 4.021147e-01 -8.867472e+00 27 32 8
3.879983e+00 -4.364523e-01 -1.129802e+01 177 152 51
-6.206177e-01 7.559586e-01 -1.292048e+01 172 139 24
-8.783618e-01 -7.596006e-01 -9.617379e+00 126 124 51
4.810838e+00 -4.919849e-01 -1.182757e+01 119 107 20
3.220491e-01 1.929186e+00 -1.258200e+01 4 6 0
4.046652e-01 1.997490e+00 -1.278786e+01 4 6 0
1.851544e+01 4.401223e-01 -2.034994e+01 27 33 1
2.594863e+01 1.857028e+00 -3.131524e+01 134 121 1
-4.824594e-01 1.647597e+00 -1.299049e+01 26 27 0
6.732927e-01 9.316013e-01 -1.276684e+01 138 136 59
5.422125e+00 -4.935537e-01 -1.207837e+01 185 173 87
-1.833340e-02 5.689784e-01 -1.252139e+01 116 90 0
1.037548e-01 5.036749e-01 -1.269118e+01 166 136 9
-9.144332e-01 -6.626714e-01 -9.061971e+00 26 42 5
-4.447204e-01 8.306841e-01 -8.648370e+00 224 166 22
1.168950e-01 1.587800e+00 -1.242497e+01 74 83 38
1.874584e+01 6.644720e-01 -2.077655e+01 145 159 100
5.029508e+00 -6.242022e-01 -1.190071e+01 203 179 70
-1.794761e-01 5.051073e-01 -1.234474e+01 172 142 9
-6.712418e-01 -2.389474e-02 -9.096693e+00 14 27 1
2.471997e+00 -9.959531e-01 -1.040514e+01 205 179 58
-3.114768e-01 9.762387e-01 -1.305110e+01 23 22 1
6.502411e-01 -6.694594e-01 -9.370341e+00 225 226 133
-5.607886e-01 1.081811e+00 -1.108844e+01 15 18 0
-3.331075e-01 8.095922e-01 -8.703505e+00 103 70 0
2.993097e-01 1.986188e+00 -1.270250e+01 113 113 67
1.178493e+00 1.704300e+00 -1.240807e+01 108 115 72
-6.879131e-01 5.349216e-01 -8.789085e+00 141 74 9
-8.506013e-02 1.374134e+00 -1.251935e+01 27 31 8
-1.177599e-01 1.382538e+00 -1.252672e+01 28 31 10
6.714446e-01 7.606709e-01 -1.230201e+01 131 126 33
4.021103e+00 -6.696180e-01 -1.128665e+01 207 166 53
7.534730e-01 5.281357e-01 -1.218049e+01 161 144 65
5.787964e-01 5.974470e-01 -1.232742e+01 94 79 2
-8.089983e-01 2.825684e-01 -8.952319e+00 27 37 12
6.448334e-01 4.900501e-01 -1.215783e+01 142 132 35
6.460536e-01 4.562490e-01 -1.213738e+01 133 123 4
3.653006e+00 -7.624253e-01 -1.096924e+01 224 184 73
6.617434e-01 4.235124e-01 -1.210463e+01 177 140 37
4.341934e+00 -1.217575e+00 -1.007078e+01 75 58 4
4.061348e-01 5.854147e-01 -1.264667e+01 75 56 20
4.808556e-01 5.336287e-01 -1.265075e+01 79 52 0
6.201898e-01 3.174556e-01 -1.218084e+01 172 126 32
-4.743854e-01 7.349922e-01 -1.256389e+01 116 92 0
4.815151e-01 3.193514e-01 -1.219933e+01 127 77 2
5.153965e-01 3.162537e-01 -1.224664e+01 127 77 2
4.474123e-01 3.806317e-01 -1.248244e+01 130 90 0
4.176208e+00 -1.330323e+00 -1.036918e+01 182 145 31
-7.358443e-01 6.674743e-01 -1.259361e+01 188 148 17
-8.395122e-01 1.446913e-01 -9.347681e+00 27 38 8
-4.608306e-01 3.159596e-01 -1.191897e+01 189 163 45
-9.517701e-01 1.132378e-01 -9.308358e+00 43 50 16
-5.794947e-01 3.525696e-01 -1.194879e+01 182 154 35
-8.829342e-01 4.882933e-01 -1.215480e+01 206 165 37
-9.742011e-01 4.621022e-01 -1.204970e+01 188 149 20
-1.388001e+00 5.545661e-02 -1.113998e+01 219 189 65
2.066337e+01 9.951352e-02 -2.055134e+01 155 151 90
9.948712e-01 1.263721e+00 -1.205337e+01 30 33 2
-7.583255e-01 6.299766e-01 -9.130565e+00 185 97 9
5.241426e+00 -3.809984e-01 -1.144445e+01 161 152 75
7.719180e+00 -9.361368e-01 -1.235221e+01 164 157 91
5.126852e+00 -5.564804e-01 -1.117379e+01 52 47 7
4.924371e+00 -5.255452e-01 -1.106802e+01 52 47 7
1.949407e+00 4.887666e-01 -1.295106e+01 185 175 102
7.580718e-01 6.380440e-01 -1.221655e+01 87 75 0
5.806704e-01 6.183072e-01 -1.226723e+01 123 105 8
5.734194e-01 6.281938e-01 -1.231856e+01 190 179 100
6.479167e-01 5.200243e-01 -1.216096e+01 89 74 1
6.446529e-01 5.206533e-01 -1.215616e+01 89 74 1
5.286816e-01 5.308223e-01 -1.213153e+01 119 105 0
1.391676e+00 3.236811e-01 -1.247330e+01 116 101 25
5.964868e-01 4.752574e-01 -1.215007e+01 124 109 1
4.552641e-01 4.237684e-01 -1.232622e+01 188 142 54
4.552641e-01 4.237684e-01 -1.232622e+01 188 142 54
5.391123e-01 3.594478e-01 -1.219827e+01 123 75 0
4.747473e-01 3.518094e-01 -1.221075e+01 161 114 24
4.747473e-01 3.518094e-01 -1.221075e+01 161 114 24
-5.644189e-01 8.234681e-01 -1.297857e+01 153 112 0
3.591029e-01 3.640682e-01 -1.225226e+01 154 107 7
3.163950e+00 -1.061765e+00 -1.026203e+01 164 126 15
-1.216262e-01 3.824871e-01 -1.220854e+01 164 123 0
-8.365643e-01 5.770989e-01 -1.234880e+01 185 141 6
-8.365643e-01 5.770989e-01 -1.234880e+01 185 141 6
-8.348250e-01 5.514262e-01 -1.227869e+01 213 168 40
-8.257154e-01 4.863547e-01 -1.215176e+01 182 139 9
-7.022505e-01 4.559603e-01 -1.224885e+01 200 157 27
-8.387223e-01 4.015295e-02 -9.380155e+00 27 37 3
-5.683632e-01 -1.713415e-01 -8.720723e+00 36 47 16
-1.003281e+00 4.139102e-01 -1.195545e+01 153 114 0
-9.940668e-01 4.004531e-01 -1.191318e+01 229 195 77
-8.136837e-01 -8.947664e-02 -9.539560e+00 38 44 17
1.878825e+00 -1.374078e+00 -9.118011e+00 190 174 91
-1.415866e+00 4.679996e-03 -1.100332e+01 239 212 93
-8.473854e-01 -7.770451e-01 -9.678528e+00 117 115 48
-4.179443e-01 8.183399e-01 -8.682419e+00 163 105 0
-5.823442e-01 8.343264e-01 -8.854108e+00 227 140 23
-5.734565e-01 8.341476e-01 -8.861988e+00 227 140 23
1.061872e+00 1.691991e+00 -1.238765e+01 69 74 42
-2.087767e-01 5.523169e-01 -8.620339e+00 41 50 7
5.064309e+00 -4.163619e-01 -1.131658e+01 69 59 0
9.296785e-01 8.858279e-01 -1.244581e+01 121 115 37
5.624973e-01 6.009896e-01 -1.217147e+01 182 165 58
-8.329880e-01 3.178866e-01 -9.002839e+00 6 15 0
5.187156e-01 5.307218e-01 -1.223452e+01 117 109 0
4.770628e-01 4.517304e-01 -1.227943e+01 145 95 1
1.036018e+00 2.243434e-01 -1.218651e+01 157 123 14
8.469843e-01 1.533572e-01 -1.203111e+01 181 139 19
2.932089e+00 -8.734831e-01 -1.052202e+01 208 170 59
-7.105491e-01 6.805127e-01 -1.257247e+01 199 160 29
2.141603e+00 -1.138076e+00 -9.742541e+00 198 166 55
1.245199e+00 1.808120e+00 -1.242817e+01 56 63 15
1.146541e+00 1.646059e+00 -1.235739e+01 4 4 0
-8.034193e-01 5.377133e-01 -8.989411e+00 168 91 0
8.037761e-01 9.104508e-01 -1.246759e+01 111 107 33
4.924739e-01 8.663109e-01 -1.265490e+01 118 104 29
6.329913e-01 6.773439e-01 -1.211551e+01 232 224 115
6.329913e-01 6.773439e-01 -1.211551e+01 232 224 115
5.680401e-01 6.873133e-01 -1.234336e+01 19 12 0
6.106007e-01 6.317480e-01 -1.215057e+01 89 75 0
-8.539539e-01 3.492931e-01 -9.083165e+00 16 26 0
4.016748e-01 6.050339e-01 -1.285911e+01 114 86 22
7.420551e-01 1.417506e-01 -1.196620e+01 171 128 0
-8.853795e-01 5.265196e-01 -1.221156e+01 165 120 0
-9.422324e-01 5.070670e-01 -1.217308e+01 214 174 43
-7.136647e-01 -3.545826e-01 -8.828835e+00 21 30 3
-1.742821e+00 -6.232004e-02 -1.068558e+01 245 221 89
-7.165743e-01 -6.033120e-01 -8.802370e+00 176 180 116
2.246438e-01 -1.294379e+00 -8.912445e+00 214 209 118
-9.528738e-01 -7.376280e-01 -8.997541e+00 32 43 13
1.910383e+01 1.914452e+00 -1.803147e+01 167 163 96
-4.676784e-01 8.274540e-01 -8.712298e+00 149 74 0
1.129116e+00 1.774219e+00 -1.248129e+01 2 3 0
1.172649e+00 1.788800e+00 -1.254580e+01 2 3 0
1.074383e+00 1.776633e+00 -1.254025e+01 116 122 75
1.214217e-01 1.579426e+00 -1.243500e+01 61 68 25
1.054814e+00 1.083485e+00 -1.220261e+01 10 10 0
-7.392677e-01 5.085534e-01 -8.939671e+00 158 82 0
-7.640897e-01 3.622515e-01 -8.940952e+00 18 28 1
7.948117e-01 6.898506e-01 -1.223857e+01 82 71 0
8.083056e-01 4.312642e-01 -1.222100e+01 153 118 32
5.182978e-01 3.851107e-01 -1.218164e+01 133 84 0
9.514292e-02 5.426621e-01 -1.253356e+01 125 94 1
1.782182e-02 5.749043e-01 -1.262522e+01 121 87 0
-6.076353e-01 7.167202e-01 -1.266415e+01 158 121 6
2.935301e+00 -1.185236e+00 -9.860193e+00 189 159 45
2.451729e+00 -1.045816e+00 -1.000665e+01 213 177 65
-1.083592e+00 3.716845e-01 -1.188752e+01 220 186 54
-1.180619e+00 2.301488e-01 -1.150650e+01 154 120 6
-8.126552e-01 -1.283263e-01 -9.566507e+00 60 68 29
-5.695130e-01 -3.106826e-01 -8.803715e+00 43 51 20
-9.296985e-01 -6.980332e-01 -9.831747e+00 199 196 101
4.915794e-01 1.933306e+00 -1.269607e+01 128 132 76
9.892602e-01 1.670126e+00 -1.240873e+01 3 1 11
9.745630e-01 1.580667e+00 -1.225441e+01 74 79 37
7.332813e-02 1.748277e+00 -1.242474e+01 128 131 81
7.332813e-02 1.748277e+00 -1.242474e+01 128 131 81
8.697912e-01 1.280488e+00 -1.211953e+01 24 27 0
-7.637636e-01 6.073246e-01 -9.012883e+00 171 90 0
4.375342e-01 9.169089e-01 -1.247832e+01 147 137 60
-8.449818e-01 2.947078e-01 -9.218735e+00 43 53 16
-7.168959e-01 1.708142e-01 -8.878899e+00 15 30 1
9.206120e-01 3.235082e-01 -1.235553e+01 114 76 0
9.632009e-01 2.264324e-01 -1.227921e+01 169 128 17
-8.168371e-01 2.291997e-01 -9.286987e+00 48 58 21
-1.598627e-01 6.306832e-01 -1.273281e+01 121 86 0
-4.404871e-01 6.721891e-01 -1.257300e+01 137 105 0
-1.244861e-01 5.094806e-01 -1.246361e+01 184 145 14
3.151149e+00 -1.165110e+00 -1.007508e+01 185 151 41
-1.348989e+00 1.380308e-01 -1.131334e+01 232 201 69
-8.360891e-01 -4.063432e-01 -9.664000e+00 63 73 30
1.763508e-01 -1.264140e+00 -8.998399e+00 204 199 108
1.159179e+00 1.553016e+00 -1.235234e+01 4 8 1
8.971588e-01 1.471655e+00 -1.224484e+01 0 2 0
8.607319e-01 1.460763e+00 -1.219965e+01 0 2 0
9.949617e-01 1.382629e+00 -1.222743e+01 75 81 37
-5.172718e-01 5.666613e-01 -8.796965e+00 61 34 7
-7.814617e-01 4.518499e-01 -8.967443e+00 35 26 0
6.239190e-01 7.059349e-01 -1.219026e+01 228 221 107
-7.531253e-01 2.220590e-01 -8.878106e+00 16 26 1
4.616820e-01 4.511216e-01 -1.247135e+01 85 53 5
8.607478e-01 2.307231e-01 -1.213933e+01 170 128 16
-1.714759e-01 5.130948e-01 -1.240171e+01 183 144 13
-8.543750e-01 -1.090140e-01 -9.451837e+00 0 2 0
-8.001610e-01 -2.042796e-01 -1.083204e+01 236 235 142
-6.601573e-01 -3.959242e-01 -9.056246e+00 0 7 0
-7.274915e-01 -4.490408e-01 -8.859255e+00 10 21 0
-7.504275e-01 -5.186500e-01 -8.839481e+00 30 43 13
-8.174783e-01 4.715098e-01 -9.024870e+00 27 28 6
-6.842976e-01 2.685773e-01 -8.870101e+00 33 47 11
-8.072849e-01 3.218086e-01 -8.975086e+00 6 15 0
6.377742e-01 3.131540e-01 -1.212697e+01 152 105 17
1.180678e-01 2.012516e-01 -1.173943e+01 160 117 0
-1.272241e-01 2.821144e-01 -1.199034e+01 178 143 10
-4.216777e-01 3.740533e-01 -1.214791e+01 174 131 1
-9.654391e-01 2.147146e-02 -9.040147e+00 30 40 3
1.718613e+00 -1.331428e+00 -9.204970e+00 193 167 58
2.094634e-01 4.085352e-01 -1.232179e+01 182 145 15
-8.605538e-01 5.025147e-01 -1.217267e+01 183 140 10
2.214051e+00 -1.077620e+00 -9.985927e+00 202 166 54
-8.437911e-01 2.526569e-02 -1.125511e+01 241 241 151
-9.026658e-01 -2.355713e-01 -9.309141e+00 46 57 17
-7.364126e-01 -5.728752e-01 -9.211094e+00 0 7 0
-7.364126e-01 -5.728752e-01 -9.211094e+00 0 7 0
-7.870736e-01 -6.340534e-01 -9.358840e+00 37 48 16
-6.251197e-01 7.091767e-01 -8.869733e+00 215 128 0
6.193081e-01 6.559641e-01 -1.278366e+01 12 9 3
8.517785e-01 8.229582e-01 -1.242664e+01 135 129 45
2.938299e-01 1.016905e+00 -1.265264e+01 156 148 73
-1.076768e-02 6.999779e-01 -1.281141e+01 87 73 21
1.135187e+00 1.725495e+00 -1.249091e+01 83 91 52
-6.143389e-02 1.095963e+00 -1.267132e+01 34 47 2
5.311199e-01 5.273300e-01 -1.212841e+01 102 99 0
-2.129059e-02 8.510339e-01 -1.322125e+01 19 20 3
1.804658e+01 2.241925e-01 -2.088200e+01 36 31 0
2.019955e+01 1.522893e-01 -2.050305e+01 20 26 0
-8.545015e-03 1.161411e+00 -1.263854e+01 35 46 0
5.383837e-01 4.791715e-01 -1.214988e+01 143 109 12
2.810694e+00 -1.036901e+00 -1.015571e+01 212 172 69
1.074839e+00 1.578309e-01 -1.212457e+01 186 153 65
4.580601e-01 3.967073e-01 -1.237696e+01 117 68 2
2.191488e-01 1.115469e-01 -1.171719e+01 175 134 28
1.026525e+01 -4.430629e+00 -1.148363e+01 192 162 41
1.208700e-01 -4.127778e-01 -1.082762e+01 81 81 32
1.658248e-01 -1.007860e+00 -9.415653e+00 192 186 117
3.065497e-02 1.169279e+00 -1.264176e+01 55 54 1
5.409847e-01 3.579110e-01 -1.220005e+01 116 64 0
-3.835628e-01 3.324750e-01 -1.202999e+01 215 174 58
1.079591e+00 8.433777e-01 -1.245203e+01 123 112 46
4.551128e+00 -1.117872e+00 -9.738110e+00 158 153 95
6.700667e-01 -1.107666e-01 -9.561576e+00 28 33 10
-5.731797e-01 8.579142e-01 -8.864623e+00 186 98 0
2.536696e-01 1.063802e+00 -1.261074e+01 116 106 44
