ply
format ascii 1.0
element face 0
property list uchar int vertex_indices
element vertex 155
property float x
property float y
property float z
property uchar diffuse_red
property uchar diffuse_green
property uchar diffuse_blue
end_header
1.364996e+01 -2.142692e+01 5.786276e+01 125 130 65
2.071570e+01 -1.579309e+01 5.670958e+01 46 60 7
-8.532443e-02 1.692101e+00 -6.062103e+00 191 128 0
-2.867541e-01 1.616957e+00 -6.076401e+00 168 104 10
-2.933304e-01 1.487646e+00 -6.062271e+00 134 88 0
-3.193512e-01 1.459779e+00 -6.114056e+00 123 77 0
-4.807234e-01 7.810139e-01 -6.337685e+00 82 52 0
-4.639462e+00 2.259816e+00 -1.965372e+01 193 171 30
7.747014e+00 5.492317e-01 -1.841159e+01 206 181 60
-4.203769e+00 -3.457916e-01 -1.233081e+01 207 187 57
-4.203769e+00 -3.457916e-01 -1.233081e+01 207 187 57
4.752710e+00 -6.025240e-01 -1.438862e+01 226 213 110
5.151620e+00 -6.812954e-01 -1.418921e+01 201 189 70
-3.687788e+00 -5.967702e-01 -1.176469e+01 233 214 83
-3.431263e+00 -7.646558e-01 -1.165412e+01 218 210 83
-3.919032e+00 -8.700142e-01 -1.111219e+01 238 210 84
4.078115e+00 -1.045267e+00 -1.284661e+01 219 225 139
2.122125e+00 -1.104851e+00 -9.053780e+00 28 36 20
2.122125e+00 -1.104851e+00 -9.053780e+00 28 36 20
1.649573e+01 -2.212659e+01 5.813865e+01 153 162 94
7.228555e+00 -1.434307e+01 3.865439e+01 6 11 0
7.228555e+00 -1.434307e+01 3.865439e+01 6 11 0
6.857517e+00 -1.380845e+01 3.761266e+01 107 113 80
8.915865e+01 5.495484e+01 -1.974723e+02 213 197 76
3.850673e-01 1.556430e+00 -6.045370e+00 64 73 17
1.290723e+01 -1.443630e+01 5.876620e+01 56 67 2
4.025023e+01 2.237082e+01 -9.163120e+01 227 215 108
3.514691e+01 1.935716e+01 -8.087229e+01 170 159 53
1.284478e+01 -1.419500e+01 5.964950e+01 104 118 48
1.546191e+01 -1.390618e+01 6.081526e+01 84 102 44
-6.925673e-01 1.335174e+00 -6.454810e+00 166 101 0
-4.394517e-01 1.253372e+00 -6.236026e+00 72 44 0
-5.456530e-01 9.486570e-01 -6.253766e+00 110 66 0
-5.046788e+00 2.431827e+00 -2.016777e+01 209 199 79
-4.804736e+00 2.420394e+00 -2.014811e+01 238 219 87
-4.729912e-01 6.910396e-01 -6.439700e+00 56 37 0
-4.534531e+00 1.888084e+00 -1.867056e+01 233 216 66
-4.795969e-01 3.357824e-01 -6.497074e+00 38 43 9
8.418425e+00 8.729210e-01 -1.989616e+01 194 175 54
-3.592227e+00 7.020318e-01 -1.588837e+01 205 186 47
4.749238e+00 -5.303264e-01 -1.441067e+01 80 61 0
5.249051e+00 -6.415780e-01 -1.422717e+01 229 210 89
3.964116e+00 -1.134728e+00 -1.262884e+01 208 214 133
2.376173e+00 -9.636696e-01 -9.191948e+00 7 25 1
2.690170e+00 -1.850762e+00 -1.062888e+01 141 152 76
2.408255e+00 -2.318933e+00 -9.496096e+00 181 191 94
-1.473879e+00 -2.050618e+00 -7.002186e+00 214 221 141
-6.275409e+01 -4.952174e+01 1.450376e+02 174 155 49
-6.275409e+01 -4.952174e+01 1.450376e+02 174 155 49
7.222307e+00 5.476815e+00 -1.970464e+01 118 129 71
-1.385903e-02 1.540635e+00 -6.007868e+00 80 51 0
4.633822e-01 1.487596e+00 -6.010840e+00 27 43 0
3.416692e+01 1.888119e+01 -7.985894e+01 231 221 108
-2.566653e-01 1.432478e+00 -6.067799e+00 80 52 0
-3.653492e-01 1.361504e+00 -6.120273e+00 73 46 0
-5.128197e-01 1.025018e+00 -6.245316e+00 92 47 0
-4.916833e-01 8.806014e-01 -6.293785e+00 90 50 0
-4.665481e-01 8.751106e-01 -6.404400e+00 112 80 23
-4.455302e-01 8.359903e-01 -6.436162e+00 58 30 0
-5.593046e-01 6.166873e-01 -6.298333e+00 88 63 12
-8.770002e-01 6.110069e-01 -6.386779e+00 36 40 4
8.114894e+00 7.813046e-01 -1.886256e+01 120 102 3
8.215864e+00 4.777821e-01 -1.861528e+01 192 169 50
-3.236765e+00 -1.037570e-02 -1.373002e+01 226 211 69
-3.770603e+00 -5.353528e-01 -1.200539e+01 160 141 10
-3.770603e+00 -5.353528e-01 -1.200539e+01 160 141 10
4.007641e+00 -9.979055e-01 -1.278890e+01 89 95 19
2.185926e+00 -8.886395e-01 -9.499925e+00 225 237 173
3.796159e+00 -1.203498e+00 -1.232577e+01 225 231 152
2.750379e+00 -1.818945e+00 -1.050151e+01 173 183 99
-1.514151e+00 -1.985273e+00 -7.185168e+00 63 72 6
2.084519e+02 1.329561e+02 -4.532672e+02 224 205 85
-9.897205e-02 1.558753e+00 -5.964201e+00 136 89 0
3.285712e-02 1.502046e+00 -6.007393e+00 67 60 13
2.224104e+01 -1.565031e+01 7.353454e+01 113 123 53
-3.758335e-01 1.301872e+00 -6.264539e+00 59 50 3
-5.202365e-01 1.147678e+00 -6.156504e+00 117 73 9
-4.652755e+00 2.054383e+00 -1.901657e+01 206 185 42
-7.478088e-01 5.998153e-01 -6.338021e+00 31 20 0
-5.172904e+00 8.513425e-01 -1.548931e+01 228 206 69
-4.899172e+00 7.768908e-01 -1.544052e+01 222 196 57
1.680965e-01 1.198278e-01 -5.974459e+00 29 40 1
2.305336e+00 -2.170099e+00 -9.470206e+00 162 173 81
-1.346495e+00 -1.737522e+00 -7.005980e+00 40 58 10
2.594477e+00 -2.319023e+00 -9.353602e+00 201 208 105
1.766739e+01 -1.599872e+01 5.685820e+01 89 95 20
-2.220562e-01 1.586103e+00 -6.045667e+00 218 164 26
1.350014e+01 -1.404487e+01 5.890639e+01 106 125 59
4.701558e-01 1.381525e+00 -6.034985e+00 23 40 4
-5.837835e-01 1.157860e+00 -6.114424e+00 119 66 0
-6.250406e-01 1.046491e+00 -6.226749e+00 124 71 1
-4.152738e-01 9.274494e-01 -6.344890e+00 52 26 0
-5.587868e-01 9.006448e-01 -6.254349e+00 132 88 9
-3.502926e-01 8.502239e-01 -6.271557e+00 73 65 3
-6.159823e-01 5.637779e-01 -6.290347e+00 14 13 0
1.091000e+01 2.003769e+00 -2.383928e+01 121 110 23
-6.131888e-01 4.847291e-01 -6.364854e+00 10 24 2
-4.047996e-01 -2.521639e-01 -5.928393e+00 15 28 0
5.624997e+00 -8.194170e-01 -1.398114e+01 215 202 76
2.021262e+00 -6.104215e-01 -9.967647e+00 63 68 1
-7.928577e-01 -9.402389e-01 -6.271016e+00 16 36 2
-1.074074e+00 -1.335315e+00 -6.479332e+00 25 48 6
2.163405e+00 -2.212103e+00 -9.092489e+00 166 175 82
2.347021e+00 -2.245509e+00 -8.831038e+00 202 208 110
1.665028e+00 -2.377465e+00 -8.536973e+00 162 172 83
1.972160e+00 -2.575377e+00 -8.304762e+00 181 189 93
1.279348e+01 -1.671964e+01 5.634356e+01 75 71 1
4.878907e-01 1.622834e+00 -6.080333e+00 35 12 10
-5.059275e+00 -1.101119e-01 -1.285243e+01 247 223 91
5.702175e+00 -4.338868e-01 -1.513210e+01 226 206 78
-2.180637e-01 -3.694620e-01 -6.030049e+00 20 37 1
-4.048016e+00 -1.177456e+00 -1.038760e+01 237 217 86
-7.623430e-01 -7.196185e-01 -6.135305e+00 15 32 0
-6.729703e-01 -7.513810e-01 -6.276862e+00 15 31 2
1.991078e+00 -1.161414e+00 -9.000533e+00 3 4 7
1.534614e+01 -1.506270e+01 4.286258e+01 93 113 60
6.951831e-01 1.418482e+00 -6.442757e+00 67 67 4
-3.195649e-01 1.094464e+00 -6.258409e+00 64 60 5
-3.512174e-01 6.963404e-01 -6.284199e+00 71 68 7
-3.512174e-01 6.963404e-01 -6.284199e+00 71 68 7
-3.512174e-01 6.963404e-01 -6.284199e+00 71 68 7
-6.364414e-01 6.577468e-01 -6.302620e+00 143 100 7
1.167277e+00 6.471918e-01 -7.097992e+00 63 64 0
-3.494387e+00 -6.760126e-01 -1.193188e+01 230 213 83
-3.887448e+00 -6.783839e-01 -1.148946e+01 188 163 34
-3.887448e+00 -6.783839e-01 -1.148946e+01 188 163 34
6.058569e+00 -9.200463e-01 -1.376006e+01 184 153 30
1.174477e+00 -1.736338e+00 -8.403853e+00 76 82 12
-3.014823e+00 -1.933780e+00 -8.236920e+00 235 236 142
1.858068e+00 -2.217321e+00 -9.049363e+00 127 135 60
1.667590e+01 -1.338816e+01 4.754791e+01 82 97 42
1.680114e+01 -1.389089e+01 5.867126e+01 62 74 8
2.177734e+01 -1.427626e+01 6.228117e+01 107 122 67
-4.487275e-01 1.082975e+00 -6.283715e+00 57 25 0
8.198107e+00 8.883212e-02 -1.769158e+01 210 186 59
-2.891742e+00 -1.116171e+00 -1.038817e+01 239 243 146
-8.917036e-01 -1.401796e+00 -6.406215e+00 29 51 13
1.471974e-01 -2.852121e+00 -7.546745e+00 165 171 98
1.538995e+01 -1.738162e+01 5.846068e+01 78 78 3
1.538995e+01 -1.738162e+01 5.846068e+01 78 78 3
1.885180e+01 -1.420431e+01 5.693427e+01 45 60 5
-2.642698e-01 9.513870e-01 -6.271025e+00 58 57 0
-5.377553e-01 5.289880e-01 -6.312549e+00 6 12 0
-4.023006e-01 -8.884588e-01 -6.234585e+00 16 33 0
3.159286e+00 -2.135419e+00 -9.455333e+00 226 229 126
1.634132e+00 -2.541374e+00 -8.326681e+00 166 176 87
-3.155846e-01 -1.885120e+00 -7.036922e+00 84 86 21
1.967223e-02 -2.621498e+00 -7.528842e+00 34 49 8
1.297424e+00 8.665573e-01 -7.317305e+00 56 54 2
-1.161060e+00 -2.259950e+00 -6.965089e+00 26 38 0
-8.508659e-01 -1.855546e+00 -7.195056e+00 45 61 19
8.884093e-03 3.437048e-03 5.594803e-02 0 255 0
8.858644e-03 3.414803e-03 5.948044e-03 255 255 0
-1.232501e-02 -9.468241e-01 -2.894967e-01 255 0 0
-9.069678e-03 -9.420056e-01 -3.391574e-01 255 255 0
