ply
format ascii 1.0
element face 0
property list uchar int vertex_indices
element vertex 945
property float x
property float y
property float z
property uchar diffuse_red
property uchar diffuse_green
property uchar diffuse_blue
end_header
-4.926357e-01 4.671978e-03 -9.194121e+00 1 8 0
-1.581523e+00 -7.427408e-02 -1.034485e+01 251 220 98
-7.451377e-02 -8.949298e-01 -9.529586e+00 190 181 102
-1.041179e+00 6.252065e-01 -1.187618e+01 214 170 37
-1.623724e+00 1.340739e-01 -1.079243e+01 254 226 101
-8.522181e-01 8.110093e+00 -3.465600e+01 57 69 27
-2.914290e+00 9.820056e+00 -3.746555e+01 76 86 56
-2.744951e-01 9.723653e+00 -3.857793e+01 0 6 0
-2.637509e+00 9.319042e+00 -3.768856e+01 3 15 0
-2.522795e+00 9.095388e+00 -3.791023e+01 96 106 53
-5.331773e+00 4.010055e+00 -2.636575e+01 87 95 26
3.621881e+00 2.038581e+00 -1.629824e+01 223 214 109
-5.070402e+00 3.562795e+00 -2.570862e+01 88 104 37
-4.896920e+00 3.117693e+00 -2.550467e+01 110 128 66
1.767750e+00 1.158311e+01 -4.450293e+01 106 122 75
-2.474526e+00 9.364486e+00 -3.780910e+01 131 141 104
-3.432147e+00 9.065122e+00 -3.786508e+01 84 100 51
-3.904729e+00 4.871502e+00 -2.805109e+01 44 53 0
-2.925448e+00 8.930522e+00 -3.765294e+01 91 106 50
5.751903e+00 1.897789e+01 -4.840731e+01 189 214 132
9.654020e+00 1.916318e+01 -4.943172e+01 217 233 143
3.777623e+00 2.026437e+00 -1.635932e+01 215 203 93
2.863587e+00 1.225459e+00 -1.429869e+01 18 23 4
2.435040e+00 8.037685e-01 -1.329275e+01 28 35 11
3.442999e+00 7.139338e-01 -1.357007e+01 110 119 88
3.063681e+00 6.237472e-01 -1.311798e+01 9 20 0
3.009863e+00 5.502383e-01 -1.296149e+01 4 7 2
2.584196e+00 3.373438e-01 -1.246598e+01 175 160 47
2.481963e+00 2.812988e-01 -1.224106e+01 147 131 33
2.296710e+00 6.587619e-01 -1.292601e+01 57 57 5
2.162977e+00 6.422437e-01 -1.284795e+01 193 187 97
7.582169e+00 1.873452e+01 -4.833938e+01 184 202 126
2.605444e+00 4.290171e-01 -1.259366e+01 112 99 3
2.834515e+00 3.787236e-01 -1.260534e+01 124 109 17
7.652596e+00 1.837041e+01 -4.833414e+01 82 98 23
2.472846e+00 7.477607e-01 -1.316398e+01 7 10 1
3.815253e+00 1.875192e+00 -1.604997e+01 171 160 55
1.165397e+00 2.019351e+01 -4.943251e+01 173 207 126
2.368524e+01 1.525606e+01 -4.360540e+01 162 152 98
1.015572e+01 1.982732e+01 -5.143092e+01 151 169 82
2.096396e+00 1.476036e+01 -4.125610e+01 163 173 79
-1.637581e-01 1.482840e+01 -4.335441e+01 162 159 116
-1.713595e+00 1.564060e+01 -4.509341e+01 2 9 0
-2.524082e+00 1.214077e+01 -3.741797e+01 117 126 103
-2.524082e+00 1.214077e+01 -3.741797e+01 117 126 103
-1.444872e+00 1.533841e+01 -4.609795e+01 150 159 127
-3.146863e+00 1.101306e+01 -3.735624e+01 70 91 33
-3.055196e+00 1.006758e+01 -3.664373e+01 78 96 52
-2.844436e+00 1.011103e+01 -3.812508e+01 4 13 0
3.324720e+00 1.949508e+01 -4.865517e+01 189 219 139
1.330824e+00 1.298710e+01 -3.694243e+01 56 67 0
1.330824e+00 1.298710e+01 -3.694243e+01 56 67 0
2.217162e+00 1.479785e+01 -4.171148e+01 123 129 25
-2.633316e+00 1.333191e+01 -3.760567e+01 84 85 9
-1.597941e+00 1.532219e+01 -4.379010e+01 64 70 21
-2.232964e+00 1.448370e+01 -4.261807e+01 18 32 0
-1.562630e+00 1.539634e+01 -4.587407e+01 8 21 0
-2.559629e+00 1.198815e+01 -3.749709e+01 7 19 1
-1.613668e+00 1.500888e+01 -4.582919e+01 1 8 0
-1.613668e+00 1.500888e+01 -4.582919e+01 1 8 0
-1.925980e+00 1.453659e+01 -4.651588e+01 156 166 109
-3.080958e+00 1.102498e+01 -3.783008e+01 13 31 0
-2.224376e+00 1.356277e+01 -4.188241e+01 159 182 130
-2.224376e+00 1.356277e+01 -4.188241e+01 159 182 130
-2.590376e+00 1.166236e+01 -3.731201e+01 157 170 126
9.062612e+00 4.166177e+00 -2.154819e+01 4 14 0
-2.955972e+00 1.007118e+01 -3.840766e+01 74 86 54
1.340466e+01 5.765892e+00 -2.555296e+01 236 254 244
-3.196920e+00 8.563213e+00 -3.722961e+01 87 107 54
5.339181e+00 1.201063e+00 -1.499579e+01 68 98 73
-1.506721e+00 1.543884e+01 -4.482316e+01 5 14 0
-1.986110e+00 1.476762e+01 -4.324479e+01 159 171 115
-2.302301e+00 1.708751e+01 -4.430855e+01 16 28 3
-9.593904e-01 1.571093e+01 -4.189208e+01 12 16 0
-1.951479e+00 1.341420e+01 -3.725608e+01 255 255 189
-2.868025e+00 9.790793e+00 -3.637462e+01 1 14 5
-3.146935e+00 9.497662e+00 -3.777402e+01 1 7 1
-2.247295e+00 1.412738e+01 -4.029681e+01 17 20 0
-2.435271e+00 1.313139e+01 -4.024434e+01 2 12 4
-4.143445e-01 1.446455e+00 -1.220252e+01 97 103 58
-1.133113e+00 5.619824e-02 -1.069718e+01 255 250 150
1.841822e+01 1.656648e+00 -3.070294e+01 72 103 68
3.653325e+00 -4.315393e-02 -1.198421e+01 123 97 10
2.961479e+00 -4.522829e-02 -1.173093e+01 141 110 27
3.504127e+00 -1.798294e-01 -1.168306e+01 132 103 9
-1.059603e+00 6.717703e-01 -1.198631e+01 207 176 59
2.868742e+00 -4.322373e-01 -1.096014e+01 196 163 56
3.394322e+00 1.147767e-02 -1.194945e+01 130 106 19
3.394322e+00 1.147767e-02 -1.194945e+01 130 106 19
3.594219e+00 -7.429801e-02 -1.198317e+01 190 165 66
3.594219e+00 -7.429801e-02 -1.198317e+01 190 165 66
3.305296e+00 -1.196985e-01 -1.164833e+01 116 85 3
3.266581e+00 -1.959741e-02 -1.186370e+01 204 181 86
2.512896e+00 -4.703415e-01 -1.065570e+01 195 158 51
2.689229e+01 7.856917e+00 -3.214591e+01 159 216 175
3.149865e+00 -7.792589e-02 -1.173090e+01 120 92 10
-4.698039e-01 -7.382597e-02 -9.071231e+00 18 28 1
-1.241184e+00 1.134363e-01 -1.081849e+01 235 210 91
-1.121879e+00 1.356486e+00 -1.435574e+01 156 152 63
-1.533832e+00 4.043682e-03 -1.053068e+01 254 220 100
-1.476435e-01 -5.593925e-01 -9.402459e+00 142 138 67
-1.130907e+00 1.096606e+00 -1.237468e+01 239 217 97
-3.441275e-01 7.235565e-01 -8.993107e+00 84 49 0
-1.546751e+00 2.242977e-01 -1.095629e+01 228 198 68
-1.202840e+00 4.131570e-01 -1.143907e+01 253 223 89
-1.549886e+00 -2.731321e-01 -9.865064e+00 242 211 87
-4.175616e-01 8.694424e-01 -1.255951e+01 208 176 63
-1.248139e+00 7.250109e-01 -1.204638e+01 255 226 90
-8.608871e-01 5.697081e-01 -1.185653e+01 248 212 76
-1.454441e+00 6.033593e-01 -1.172443e+01 244 207 74
-1.334852e+00 2.796398e-01 -1.111891e+01 255 224 91
2.449719e-01 1.573568e+00 -1.206105e+01 87 82 45
-8.038893e-02 1.027567e+00 -1.224227e+01 154 147 76
-1.108482e+00 9.983276e-01 -1.272071e+01 245 213 78
3.193175e-01 -7.081123e-01 -9.537972e+00 201 194 106
7.985189e-01 -5.262471e-01 -9.997577e+00 230 222 131
-1.369695e+00 -1.348718e-01 -1.027372e+01 244 218 92
-9.026559e-01 5.197156e-01 -1.181208e+01 243 209 73
-1.227672e+00 4.094829e-01 -7.634760e+00 206 165 49
5.208265e-01 9.404200e-02 -9.790138e+00 241 232 144
-1.395209e-01 8.000822e-01 -8.949994e+00 128 106 29
-2.464902e-01 7.902294e-01 -8.982827e+00 126 80 7
-2.933019e-01 7.686216e-01 -8.974399e+00 133 79 10
2.292803e-01 1.744367e+00 -1.218035e+01 119 120 64
8.866002e-02 2.726648e+00 -1.652338e+01 133 123 44
-2.933173e-01 1.278181e+00 -1.203927e+01 32 31 10
-7.374321e-01 1.259470e+00 -1.326849e+01 254 222 93
2.453993e+00 -1.318563e-01 -1.135589e+01 197 159 58
-4.122876e-01 1.439643e-01 -9.194608e+00 25 31 4
2.344202e+00 -4.003127e-01 -1.072394e+01 189 159 47
-1.032082e+00 2.013590e-01 -1.097600e+01 191 167 45
-1.446678e+00 -1.131541e-01 -1.026993e+01 252 218 92
-1.485047e+00 -1.661848e-01 -1.016665e+01 249 215 92
-2.172332e-01 7.897414e-01 -8.969199e+00 95 59 0
2.516297e-01 1.691859e+00 -1.219052e+01 129 126 78
1.087747e-01 2.757937e+00 -1.647152e+01 241 230 142
6.057950e+00 1.124533e-01 -1.620591e+01 124 99 16
3.023373e+00 -5.888343e-02 -1.188004e+01 187 156 58
2.799605e+00 -8.469347e-02 -1.167281e+01 186 152 44
-2.076938e-03 5.416806e-01 -1.203209e+01 163 129 17
1.954950e+00 -3.478414e-01 -1.075432e+01 237 217 123
-1.488558e+00 -1.522695e-01 -1.019054e+01 232 198 75
-1.534445e+00 -2.757364e-01 -9.921009e+00 241 216 91
-4.082877e-01 8.181031e-01 -9.080558e+00 238 153 7
-5.115510e-01 6.321392e-01 -9.086913e+00 187 104 3
-5.820406e-01 5.755432e-01 -9.245592e+00 170 98 0
4.134241e-02 1.070687e+00 -1.217666e+01 65 62 3
4.134241e-02 1.070687e+00 -1.217666e+01 65 62 3
8.838064e-02 9.894958e-01 -1.222543e+01 66 67 5
9.535596e-02 9.910555e-01 -1.224564e+01 66 67 5
-9.815350e-01 3.521808e-01 -8.837125e+00 29 21 2
-3.132529e-01 6.784875e-01 -1.226534e+01 144 114 0
4.357316e-01 -1.933592e-01 -9.853001e+00 4 2 0
-1.055694e+00 1.672851e-01 -1.096482e+01 194 171 48
-5.653128e-01 5.411655e-01 -9.161408e+00 164 90 0
-5.912992e-01 4.614023e-01 -9.126900e+00 42 47 7
-9.681937e-01 1.095338e+00 -1.287678e+01 246 215 91
-2.277625e-01 4.386451e-01 -1.176779e+01 212 173 37
2.219167e+00 -3.426918e-01 -1.079720e+01 207 180 67
-1.204736e+00 3.694705e-01 -1.136086e+01 214 183 56
-4.414832e-01 -3.405163e-01 -9.120529e+00 49 55 17
-7.157147e-01 -6.746961e-01 -9.342184e+00 163 155 82
-5.273963e-01 6.104615e-01 -9.109249e+00 174 94 0
-8.292873e-03 1.046428e+00 -1.223081e+01 54 61 15
2.809613e+00 -3.697947e-01 -1.118324e+01 211 181 69
-1.127614e+00 5.036645e-01 -1.162907e+01 252 222 92
-1.358782e+00 3.361529e-01 -1.112442e+01 247 214 88
-1.225771e+00 7.866986e-02 -1.069903e+01 244 215 88
-1.271547e+00 2.066883e-02 -1.062151e+01 243 214 84
-5.651663e-01 5.119874e-01 -9.156593e+00 168 103 12
-4.531870e-02 1.118033e+00 -1.222089e+01 147 143 70
-4.531870e-02 1.118033e+00 -1.222089e+01 147 143 70
-4.177189e-01 3.468311e-01 -9.143508e+00 4 6 0
-1.218240e+00 2.935123e-02 -1.060445e+01 232 202 84
3.398692e-01 -7.090713e-01 -9.486396e+00 200 194 106
-7.619954e-01 -4.714335e-01 -9.727346e+00 218 209 112
-7.268764e-01 -6.571508e-01 -9.404112e+00 166 159 79
-6.087209e-01 5.425347e-01 -9.405674e+00 162 157 76
-3.714653e-01 3.210031e-01 -9.148722e+00 64 62 10
-5.430058e-01 3.138997e-01 -9.151335e+00 18 31 1
-1.160118e+00 8.998764e-02 -1.076952e+01 225 199 75
-6.403904e-01 -1.855290e-01 -9.470087e+00 61 70 27
-5.145927e-01 -2.228498e-01 -9.082771e+00 35 46 17
-4.427580e-01 8.209230e-01 -9.120793e+00 195 103 2
-6.046056e-01 -3.714569e-01 -9.118479e+00 36 47 17
-4.487988e-02 9.606180e-01 -1.230346e+01 153 146 66
-3.329393e-01 6.650378e-01 -1.232101e+01 168 131 13
-4.350128e-01 4.170570e-01 -9.166951e+00 9 18 0
2.301376e-01 -7.581535e-01 -9.367970e+00 200 194 106
-5.464243e-01 6.056492e-01 -9.255104e+00 186 107 2
-5.345909e-01 4.557388e-01 -9.123696e+00 27 31 7
-1.784439e-01 7.858575e-01 -1.217864e+01 25 18 1
-2.385681e-01 9.687622e-01 -1.219527e+01 30 29 0
-5.261846e-01 5.693573e-01 -9.095518e+00 176 100 6
7.642293e+00 8.115376e+00 -2.801025e+01 53 60 8
5.722421e+00 6.346798e+00 -2.468709e+01 54 59 41
-7.894764e-02 1.269577e+00 -1.208618e+01 13 17 0
-7.894764e-02 1.269577e+00 -1.208618e+01 13 17 0
5.266250e-01 9.148759e-01 -1.212104e+01 91 89 12
5.300067e-01 9.147851e-01 -1.212704e+01 91 89 12
3.215576e+00 -4.927464e-01 -1.094508e+01 202 173 56
-1.266296e-01 4.491595e-01 -1.180680e+01 183 146 6
-7.890296e-01 4.596253e-01 -1.164167e+01 236 215 90
-9.160945e-01 3.176369e-01 -1.129343e+01 215 186 66
-1.481815e+00 -9.183627e-02 -1.030785e+01 198 166 47
-6.004259e-01 3.590663e-01 -9.164290e+00 25 42 9
-1.466268e+00 -1.200570e-01 -1.026298e+01 228 201 70
-5.737253e-01 4.774539e-01 -9.188683e+00 36 44 5
4.088986e-01 9.464215e-01 -1.216463e+01 92 90 16
3.152905e+00 -4.948964e-01 -1.094563e+01 185 155 40
2.484612e+00 -7.221810e-01 -1.029767e+01 191 170 53
2.500474e-01 9.898197e-01 -1.218276e+01 113 113 41
5.077669e-01 9.171039e-01 -1.213603e+01 90 88 11
5.077669e-01 9.171039e-01 -1.213603e+01 90 88 11
-7.184508e-02 9.342981e-01 -1.237082e+01 140 140 72
-8.890199e-02 9.304952e-01 -1.232505e+01 140 140 72
1.808970e-01 6.512310e-01 -1.232275e+01 107 87 21
1.925381e-01 5.526987e-01 -1.213001e+01 124 97 0
-1.438270e+00 -1.141111e-01 -1.029183e+01 246 222 88
3.408092e-01 1.726087e+00 -1.225699e+01 4 6 0
3.403851e-01 1.596632e+00 -1.209472e+01 3 3 9
-5.098362e-01 5.178624e-01 -9.087990e+00 101 43 1
4.464653e-01 8.799779e-01 -1.215203e+01 140 138 61
4.199287e+00 -3.324843e-01 -1.162278e+01 96 84 2
3.962663e-01 5.667722e-01 -1.222013e+01 94 74 4
-1.488750e+00 1.063627e-01 -1.071801e+01 197 173 46
-5.876248e-01 4.978345e-01 -9.191292e+00 39 30 0
1.044492e-01 1.078981e+00 -1.217220e+01 150 153 81
2.149876e-01 1.052553e+00 -1.216265e+01 153 155 77
1.493383e-01 1.014687e+00 -1.219541e+01 43 53 7
1.493383e-01 1.014687e+00 -1.219541e+01 43 53 7
-8.256456e-01 3.944587e-01 -1.147351e+01 163 136 18
-6.197444e-01 -2.134247e-01 -9.136224e+00 19 32 1
-6.100165e-01 -2.604937e-01 -9.139313e+00 24 38 5
-1.546702e+00 -8.769657e-02 -1.032603e+01 237 209 86
-4.625673e-02 5.771229e-01 -1.212519e+01 155 126 7
2.283479e-02 1.003637e+00 -1.225250e+01 149 159 96
2.089408e+01 3.186162e+00 -3.033131e+01 150 151 47
2.533530e+01 1.635757e+01 -4.513047e+01 146 96 53
2.014200e+01 2.545994e+00 -2.903217e+01 162 129 0
2.487590e+01 1.604045e+01 -4.563836e+01 175 147 97
2.536057e+01 1.592518e+01 -4.564792e+01 129 102 51
2.375827e+01 1.666041e+01 -4.537275e+01 173 157 98
2.711426e+01 1.649422e+01 -4.589628e+01 168 145 95
2.711426e+01 1.649422e+01 -4.589628e+01 168 145 95
2.711426e+01 1.649422e+01 -4.589628e+01 168 145 95
2.443462e+01 1.608369e+01 -4.590597e+01 146 121 64
-2.946513e-01 6.540286e-01 -8.379499e+00 149 159 95
1.991395e+01 2.623622e+00 -2.904484e+01 193 170 22
2.692637e+01 1.542293e+01 -4.483727e+01 158 151 113
-5.697167e-01 4.874516e-01 -9.158696e+00 55 33 0
2.377014e-01 -1.073750e-01 -8.477007e+00 189 164 56
2.495180e+01 2.225847e+00 -3.112150e+01 193 180 27
1.593595e+01 4.943200e-01 -1.947701e+01 127 135 87
3.129081e-01 9.703557e-01 -1.216030e+01 108 104 33
-5.964524e-01 3.456793e-01 -9.169347e+00 23 37 1
3.332951e+00 -4.344166e-01 -1.113656e+01 201 171 57
2.322516e+00 -5.495666e-01 -1.056163e+01 183 151 38
2.530685e+00 -7.062120e-01 -1.029479e+01 191 169 52
5.231363e-02 1.073138e+00 -1.217734e+01 54 62 2
4.547795e-01 9.289887e-01 -1.212789e+01 88 86 11
4.647458e-01 9.024495e-01 -1.214166e+01 134 132 55
4.777045e+00 -2.126358e-01 -1.211594e+01 186 171 80
4.609937e+00 -2.144075e-01 -1.218060e+01 115 96 3
-7.453496e-01 4.918240e-01 -9.914313e+00 21 19 3
3.579539e+00 -3.219201e-01 -1.152296e+01 195 168 53
-3.126491e-01 7.116437e-01 -1.250849e+01 151 123 0
-4.808876e-02 5.167163e-01 -1.198090e+01 156 125 0
3.457704e+00 -6.584231e-01 -1.092397e+01 172 147 28
1.518503e-01 -4.632488e-01 -8.552541e+00 214 213 119
-5.466324e-01 4.579139e-01 -9.118828e+00 27 32 8
3.195423e+00 -2.321471e-01 -1.113859e+01 177 152 51
-4.634911e-01 7.420126e-01 -1.242685e+01 172 139 24
-6.622820e-01 -4.697314e-01 -9.720769e+00 126 124 51
3.969861e+00 -2.823493e-01 -1.158905e+01 119 107 20
2.971202e-01 1.686376e+00 -1.214165e+01 4 6 0
3.649957e-01 1.743120e+00 -1.231452e+01 4 6 0
1.595130e+01 4.411734e-01 -1.916687e+01 27 33 1
2.313328e+01 1.693660e+00 -2.938839e+01 134 121 1
-3.521082e-01 1.463641e+00 -1.248052e+01 26 27 0
5.809433e-01 8.800214e-01 -1.229847e+01 138 136 59
4.478070e+00 -2.864329e-01 -1.180443e+01 185 173 87
2.312032e-02 5.886042e-01 -1.209484e+01 116 90 0
1.215120e-01 5.354990e-01 -1.223583e+01 166 136 9
-6.883826e-01 -3.897369e-01 -9.273936e+00 26 42 5
-3.129991e-01 7.970355e-01 -8.945112e+00 224 166 22
1.326240e-01 1.411116e+00 -1.201394e+01 74 83 38
1.591370e+01 6.337768e-01 -1.937602e+01 145 159 100
4.151918e+00 -3.912683e-01 -1.165274e+01 203 179 70
-1.066632e-01 5.374152e-01 -1.194858e+01 172 142 9
-4.946347e-01 1.182334e-01 -9.302725e+00 14 27 1
2.037042e+00 -6.758583e-01 -1.039007e+01 205 179 58
-2.135392e-01 9.198020e-01 -1.253516e+01 23 22 1
5.598744e-01 -4.011267e-01 -9.532379e+00 225 226 133
-4.106910e-01 1.001373e+00 -1.091394e+01 15 18 0
-2.014617e-01 7.840538e-01 -9.005881e+00 103 70 0
2.949293e-01 1.744641e+00 -1.227635e+01 113 113 67
9.960775e-01 1.506734e+00 -1.201614e+01 108 115 72
-5.057259e-01 5.631739e-01 -9.057623e+00 141 74 9
-3.059285e-02 1.241071e+00 -1.209161e+01 27 31 8
-5.748687e-02 1.247844e+00 -1.209645e+01 28 31 10
5.992801e-01 7.420847e-01 -1.195047e+01 131 126 33
3.319880e+00 -4.245991e-01 -1.113919e+01 207 166 53
6.621788e-01 5.541871e-01 -1.184454e+01 161 144 65
5.199182e-01 6.091503e-01 -1.196450e+01 94 79 2
-6.137982e-01 3.639394e-01 -9.176926e+00 27 37 12
5.745109e-01 5.234509e-01 -1.182692e+01 142 132 35
5.787795e-01 4.948475e-01 -1.181731e+01 133 123 4
3.054788e+00 -5.038528e-01 -1.090137e+01 224 184 73
5.874423e-01 4.695606e-01 -1.178076e+01 177 140 37
3.767904e+00 -9.154648e-01 -1.022502e+01 75 58 4
3.677387e-01 6.010281e-01 -1.220437e+01 75 56 20
4.281361e-01 5.589117e-01 -1.220825e+01 79 52 0
5.512327e-01 3.833734e-01 -1.183919e+01 172 126 32
-3.422312e-01 7.249848e-01 -1.213700e+01 116 92 0
4.308591e-01 3.857227e-01 -1.184022e+01 127 77 2
4.682136e-01 3.829030e-01 -1.189676e+01 127 77 2
4.135954e-01 4.353602e-01 -1.209289e+01 130 90 0
3.465858e+00 -9.640124e-01 -1.040022e+01 182 145 31
-5.588784e-01 6.708712e-01 -1.214954e+01 188 148 17
-6.296663e-01 2.527703e-01 -9.502546e+00 27 38 8
-3.110260e-01 3.796697e-01 -1.165320e+01 189 163 45
-7.190822e-01 2.281461e-01 -9.469803e+00 43 50 16
-4.298357e-01 4.156172e-01 -1.161741e+01 182 154 35
-6.762748e-01 5.260129e-01 -1.178430e+01 206 165 37
-7.497098e-01 5.051208e-01 -1.169660e+01 188 149 20
-1.078395e+00 1.795220e-01 -1.094679e+01 219 189 65
1.777190e+01 1.545772e-01 -1.934973e+01 155 151 90
8.574655e-01 1.150219e+00 -1.173824e+01 30 33 2
-5.665479e-01 6.377000e-01 -9.324797e+00 185 97 9
4.545765e+00 -2.218491e-01 -1.140483e+01 161 152 75
6.532881e+00 -6.771214e-01 -1.214222e+01 164 157 91
4.210240e+00 -3.325035e-01 -1.104865e+01 52 47 7
4.263318e+00 -3.399552e-01 -1.107530e+01 52 47 7
1.684773e+00 5.191418e-01 -1.255573e+01 185 175 102
6.564878e-01 6.430915e-01 -1.185911e+01 87 75 0
5.144638e-01 6.276122e-01 -1.190317e+01 123 105 8
5.241359e-01 6.357721e-01 -1.197162e+01 190 179 100
5.699516e-01 5.474700e-01 -1.181752e+01 89 74 1
5.659591e-01 5.481687e-01 -1.181154e+01 89 74 1
4.713405e-01 5.565241e-01 -1.178794e+01 119 105 0
1.263032e+00 3.819436e-01 -1.220095e+01 116 101 25
5.376278e-01 5.089164e-01 -1.182049e+01 124 109 1
4.103627e-01 4.701232e-01 -1.194561e+01 188 142 54
4.103627e-01 4.701232e-01 -1.194561e+01 188 142 54
4.880999e-01 4.161459e-01 -1.185668e+01 123 75 0
4.265926e-01 4.119236e-01 -1.185273e+01 161 114 24
4.265926e-01 4.119236e-01 -1.185273e+01 161 114 24
-4.207287e-01 7.975314e-01 -1.247246e+01 153 112 0
3.474865e-01 4.220755e-01 -1.191288e+01 154 107 7
2.586449e+00 -7.278893e-01 -1.027599e+01 164 126 15
-8.253919e-02 4.353817e-01 -1.179944e+01 164 123 0
-6.396136e-01 5.977757e-01 -1.194527e+01 185 141 6
-6.396136e-01 5.977757e-01 -1.194527e+01 185 141 6
-6.378442e-01 5.769526e-01 -1.188726e+01 213 168 40
-6.298502e-01 5.242666e-01 -1.178239e+01 182 139 9
-5.427497e-01 4.997055e-01 -1.183062e+01 200 157 27
-6.501507e-01 1.743928e-01 -9.503316e+00 27 37 3
-4.129686e-01 2.456208e-03 -9.002901e+00 36 47 16
-7.727467e-01 4.662989e-01 -1.161861e+01 153 114 0
-7.650396e-01 4.554160e-01 -1.158388e+01 229 195 77
-6.112229e-01 6.641021e-02 -9.655388e+00 38 44 17
1.546820e+00 -9.699826e-01 -9.338242e+00 190 174 91
-1.099858e+00 1.390619e-01 -1.083521e+01 239 212 93
-6.757384e-01 -4.583507e-01 -9.719822e+00 117 115 48
-2.829923e-01 7.877799e-01 -8.979892e+00 163 105 0
-4.190592e-01 7.999766e-01 -9.112296e+00 227 140 23
-4.203539e-01 7.999451e-01 -9.109886e+00 227 140 23
9.149764e-01 1.500261e+00 -1.201815e+01 69 74 42
-1.048967e-01 5.776515e-01 -8.938631e+00 41 50 7
4.386265e+00 -2.497164e-01 -1.128964e+01 69 59 0
8.028546e-01 8.438079e-01 -1.205978e+01 121 115 37
4.987810e-01 6.134532e-01 -1.182207e+01 182 165 58
-6.259571e-01 3.912809e-01 -9.222303e+00 6 15 0
4.633009e-01 5.566690e-01 -1.187394e+01 117 109 0
4.399416e-01 4.920662e-01 -1.193406e+01 145 95 1
8.907199e-01 3.059024e-01 -1.185191e+01 157 123 14
7.271244e-01 2.508121e-01 -1.170657e+01 181 139 19
2.401007e+00 -5.767130e-01 -1.048631e+01 208 170 59
-5.381528e-01 6.813258e-01 -1.213238e+01 199 160 29
1.755278e+00 -7.822015e-01 -9.844395e+00 198 166 55
1.059098e+00 1.593743e+00 -1.204801e+01 56 63 15
9.810730e-01 1.461977e+00 -1.199076e+01 4 4 0
-5.934045e-01 5.699482e-01 -9.219957e+00 168 91 0
7.006525e-01 8.646116e-01 -1.207824e+01 111 107 33
4.426693e-01 8.292112e-01 -1.222184e+01 118 104 29
5.587477e-01 6.752070e-01 -1.178083e+01 232 224 115
5.587477e-01 6.752070e-01 -1.178083e+01 232 224 115
5.150320e-01 6.828015e-01 -1.198558e+01 19 12 0
5.382157e-01 6.382396e-01 -1.180594e+01 89 75 0
-6.509705e-01 4.163002e-01 -9.278363e+00 16 26 0
3.723555e-01 6.179701e-01 -1.239886e+01 114 86 22
6.582598e-01 2.403329e-01 -1.167575e+01 171 128 0
-6.785328e-01 5.569385e-01 -1.183121e+01 165 120 0
-7.244752e-01 5.413827e-01 -1.179880e+01 214 174 43
-5.293712e-01 -1.428817e-01 -9.087764e+00 21 30 3
-1.360985e+00 8.685389e-02 -1.057363e+01 245 221 89
-5.504041e-01 -3.286072e-01 -9.053087e+00 176 180 116
2.203356e-01 -8.988219e-01 -9.162820e+00 214 209 118
-7.112970e-01 -4.392395e-01 -9.223780e+00 32 43 13
1.715850e+01 1.767958e+00 -1.755452e+01 167 163 96
-3.252736e-01 7.952061e-01 -9.001760e+00 149 74 0
9.658246e-01 1.566390e+00 -1.209190e+01 2 3 0
1.006393e+00 1.580113e+00 -1.215161e+01 2 3 0
9.242736e-01 1.569725e+00 -1.214375e+01 116 122 75
1.411910e-01 1.408303e+00 -1.203215e+01 61 68 25
9.210474e-01 1.005834e+00 -1.188236e+01 10 10 0
-5.588427e-01 5.415272e-01 -9.163438e+00 158 82 0
-5.670702e-01 4.259163e-01 -9.178493e+00 18 28 1
6.836256e-01 6.845995e-01 -1.187359e+01 82 71 0
7.092036e-01 4.753372e-01 -1.188249e+01 153 118 32
4.624297e-01 4.387567e-01 -1.182993e+01 133 84 0
1.155764e-01 5.671674e-01 -1.210743e+01 125 94 1
5.213356e-02 5.940695e-01 -1.218298e+01 121 87 0
-4.546753e-01 7.104553e-01 -1.221005e+01 158 121 6
2.438231e+00 -8.396206e-01 -9.968212e+00 189 159 45
2.006401e+00 -7.104060e-01 -1.006097e+01 213 177 65
-8.357756e-01 4.321058e-01 -1.156605e+01 220 186 54
-9.097096e-01 3.152472e-01 -1.126055e+01 154 120 6
-6.339118e-01 4.275881e-02 -9.647017e+00 60 68 29
-4.146098e-01 -1.083605e-01 -9.068878e+00 43 51 20
-7.428531e-01 -3.958554e-01 -9.835176e+00 199 196 101
4.477130e-01 1.699424e+00 -1.226440e+01 128 132 76
8.528842e-01 1.481967e+00 -1.203115e+01 3 1 11
8.422561e-01 1.408823e+00 -1.190495e+01 74 79 37
1.047401e-01 1.546530e+00 -1.202764e+01 128 131 81
1.047401e-01 1.546530e+00 -1.202764e+01 128 131 81
8.100321e-01 1.169973e+00 -1.187934e+01 24 27 0
-5.692217e-01 6.199732e-01 -9.232432e+00 171 90 0
3.970249e-01 8.700586e-01 -1.207305e+01 147 137 60
-6.473314e-01 3.733557e-01 -9.382766e+00 43 53 16
-5.302673e-01 2.739724e-01 -9.128749e+00 15 30 1
7.953251e-01 3.868530e-01 -1.198789e+01 114 76 0
8.454375e-01 3.077597e-01 -1.194706e+01 169 128 17
-6.271352e-01 3.219087e-01 -9.435436e+00 48 58 21
-9.929436e-02 6.391687e-01 -1.225532e+01 121 86 0
-3.168935e-01 6.736019e-01 -1.213971e+01 137 105 0
-6.527779e-02 5.414510e-01 -1.204307e+01 184 145 14
2.616525e+00 -8.219166e-01 -1.014602e+01 185 151 41
-1.048166e+00 2.455305e-01 -1.108860e+01 232 201 69
-6.588346e-01 -1.728280e-01 -9.717005e+00 63 73 30
1.900845e-01 -8.764514e-01 -9.238156e+00 204 199 108
8.958202e-01 1.366365e+00 -1.184966e+01 4 8 1
8.125613e-01 1.332359e+00 -1.194919e+01 0 2 0
8.233554e-01 1.338043e+00 -1.196099e+01 0 2 0
8.444816e-01 1.243787e+00 -1.186559e+01 75 81 37
-3.702597e-01 5.882142e-01 -9.064958e+00 61 34 7
-5.872319e-01 4.970325e-01 -9.192999e+00 35 26 0
5.507705e-01 6.983967e-01 -1.184152e+01 228 221 107
-5.625460e-01 3.162188e-01 -9.124419e+00 16 26 1
4.171060e-01 4.920764e-01 -1.206339e+01 85 53 5
7.394841e-01 3.130667e-01 -1.179717e+01 170 128 16
-9.973445e-02 5.440686e-01 -1.199732e+01 183 144 13
-6.508017e-01 5.567236e-02 -9.573642e+00 0 2 0
-6.056296e-01 -2.880198e-02 -1.069887e+01 236 235 142
-5.083400e-01 -1.668899e-01 -9.252081e+00 0 7 0
-5.595176e-01 -2.077034e-01 -9.097341e+00 10 21 0
-5.787346e-01 -2.615130e-01 -9.080616e+00 30 43 13
-6.117521e-01 5.132087e-01 -9.241920e+00 27 28 6
-5.110354e-01 3.525759e-01 -9.116648e+00 33 47 11
-6.002696e-01 3.936331e-01 -9.206943e+00 6 15 0
5.583007e-01 3.803143e-01 -1.178366e+01 152 105 17
1.333260e-01 2.919858e-01 -1.145167e+01 160 117 0
-7.016854e-02 3.581867e-01 -1.164650e+01 178 143 10
-3.050179e-01 4.329681e-01 -1.177746e+01 174 131 1
-7.487919e-01 1.611435e-01 -9.233926e+00 30 40 3
1.422969e+00 -9.373849e-01 -9.410152e+00 193 167 58
2.103119e-01 4.586354e-01 -1.193912e+01 182 145 15
-6.543058e-01 5.374193e-01 -1.180937e+01 183 140 10
1.848478e+00 -7.457371e-01 -1.006338e+01 202 166 54
-6.613691e-01 1.586827e-01 -1.099890e+01 241 241 151
-7.075205e-01 -3.864778e-02 -9.439266e+00 46 57 17
-5.768365e-01 -3.024528e-01 -9.365759e+00 0 7 0
-5.768365e-01 -3.024528e-01 -9.365759e+00 0 7 0
-6.214114e-01 -3.486160e-01 -9.476634e+00 37 48 16
-4.559210e-01 7.016254e-01 -9.122258e+00 215 128 0
4.698855e-01 6.530853e-01 -1.219576e+01 12 9 3
7.354273e-01 7.892563e-01 -1.203971e+01 135 129 45
2.808112e-01 9.516755e-01 -1.221569e+01 156 148 73
3.622682e-02 6.971288e-01 -1.235397e+01 87 73 21
9.678533e-01 1.525357e+00 -1.209575e+01 83 91 52
-7.173490e-03 1.016744e+00 -1.222919e+01 34 47 2
4.758160e-01 5.544552e-01 -1.179137e+01 102 99 0
3.056440e-02 8.215943e-01 -1.270456e+01 19 20 3
1.579553e+01 2.583069e-01 -1.980040e+01 36 31 0
1.747506e+01 1.878844e-01 -1.935307e+01 20 26 0
3.608866e-02 1.069730e+00 -1.220287e+01 35 46 0
4.860588e-01 5.159183e-01 -1.181240e+01 143 109 12
2.355436e+00 -7.288263e-01 -1.021870e+01 212 172 69
9.225977e-01 2.512853e-01 -1.180244e+01 186 153 65
4.220653e-01 4.483837e-01 -1.200956e+01 117 68 2
2.161060e-01 2.194848e-01 -1.143846e+01 175 134 28
9.105773e+00 -3.812699e+00 -1.156839e+01 192 162 41
1.332316e-01 -1.985836e-01 -1.070562e+01 81 81 32
1.647761e-01 -6.652695e-01 -9.562663e+00 192 186 117
6.444239e-02 1.076049e+00 -1.219800e+01 55 54 1
4.897858e-01 4.152813e-01 -1.185858e+01 116 64 0
-2.757030e-01 4.003200e-01 -1.167764e+01 215 174 58
9.275876e-01 8.091797e-01 -1.207208e+01 123 112 46
3.832034e+00 -8.150134e-01 -9.907208e+00 158 153 95
5.814269e-01 4.304456e-02 -9.692742e+00 28 33 10
-4.136454e-01 8.178308e-01 -9.117472e+00 186 98 0
2.468037e-01 9.900246e-01 -1.217826e+01 116 106 44
3.500524e+00 -9.270726e-01 -9.647639e+00 168 157 103
2.961662e-01 1.751516e+00 -1.234355e+01 133 131 76
-3.888922e-03 1.047503e+00 -1.223954e+01 50 56 20
3.576974e+00 -1.071711e+00 -9.905759e+00 82 52 0
1.418434e+00 -9.358256e-01 -9.413462e+00 201 166 61
-5.407288e-01 5.989308e-01 -9.126584e+00 171 88 0
3.958166e+01 1.559543e+01 -4.919517e+01 147 216 192
5.163463e-01 9.394073e-01 -1.212242e+01 141 139 62
2.181872e+01 4.878426e+00 -2.473903e+01 145 165 106
-3.475983e-01 8.088777e-01 -1.057031e+01 21 25 0
3.743211e+01 1.424126e+01 -4.470393e+01 120 168 117
1.570411e+01 7.407494e+00 -2.880710e+01 70 90 77
1.491418e+01 7.384132e+00 -2.859591e+01 15 37 24
1.716307e+01 1.858742e+00 -1.771584e+01 93 71 10
6.021665e+00 1.684443e+00 -1.640563e+01 130 115 39
5.280137e-01 6.083307e-01 -1.197460e+01 94 79 2
2.593364e-02 5.421745e-01 -1.210277e+01 168 129 12
-5.783147e-01 3.602666e-01 -9.158752e+00 13 23 0
5.014733e-01 4.925939e-01 -1.181008e+01 175 140 34
5.014733e-01 4.925939e-01 -1.181008e+01 175 140 34
5.454776e-01 4.242114e-01 -1.182353e+01 118 76 0
-6.725253e-01 -2.724829e-01 -9.659830e+00 45 57 19
3.359282e-01 6.909090e-01 -1.241189e+01 17 18 0
3.947351e-01 1.151301e+00 -1.180299e+01 36 41 9
-6.233463e-01 4.303519e-01 -9.345044e+00 21 32 1
1.708135e+01 1.963318e+00 -1.769478e+01 101 73 10
1.191119e+00 9.491787e-01 -1.177772e+01 12 14 0
-1.350659e+00 1.136438e-02 -1.046102e+01 232 205 72
-1.286365e+00 3.685585e-02 -1.055208e+01 239 213 80
-1.244394e+00 1.302692e-01 -1.075528e+01 231 203 72
1.709319e+01 3.414792e+00 -1.591273e+01 120 110 41
6.864309e-01 -3.113397e-02 -8.697614e+00 162 145 81
4.694833e-01 8.497149e-01 -1.219899e+01 158 139 71
3.337500e+00 -1.047127e+00 -9.645871e+00 29 15 0
5.766216e-01 4.425414e-01 -1.183906e+01 157 102 19
4.449039e-01 4.755382e-01 -1.187384e+01 159 100 6
1.287684e-01 7.284895e-01 -1.241530e+01 22 16 6
4.432580e-01 4.419110e-01 -1.192927e+01 129 78 0
4.437853e-01 4.418942e-01 -1.193371e+01 129 78 0
4.098277e-01 4.507602e-01 -1.205445e+01 123 78 2
-6.472995e-01 1.630643e-02 -9.543372e+00 17 24 0
4.137761e-01 5.547899e-01 -1.204677e+01 72 51 21
-6.377069e-01 -5.224280e-03 -9.525784e+00 43 51 12
-5.829890e-01 -2.788453e-01 -9.383671e+00 9 18 2
-7.738051e-01 -1.854100e-01 -1.038324e+01 244 237 149
-7.147833e-01 -4.415314e-01 -9.477608e+00 33 32 7
6.179202e-02 9.830748e-01 -1.218868e+01 66 65 8
-6.295774e-01 -2.013377e-01 -9.618816e+00 32 43 5
-5.512030e-01 4.297682e-01 -1.165289e+01 254 240 139
-6.315462e-01 -2.188547e-01 -9.650123e+00 43 53 16
-7.981219e-01 2.710896e-01 -8.416452e+00 161 151 80
-6.329101e-02 -1.520341e-01 -1.084639e+01 248 236 146
9.090709e-01 8.498996e-01 -1.202318e+01 151 140 77
9.090709e-01 8.498996e-01 -1.202318e+01 151 140 77
5.945434e+00 1.645557e+00 -1.612948e+01 121 101 15
5.932570e+00 1.676773e+00 -1.621404e+01 155 134 53
5.859409e+00 1.312714e+00 -1.544597e+01 186 164 55
2.295941e+00 5.119090e-01 -1.270852e+01 140 122 19
3.532600e+00 -9.481637e-01 -9.651535e+00 160 158 102
8.681292e-01 8.302248e-01 -1.206229e+01 123 116 41
1.674393e+00 3.573913e-01 -1.227527e+01 188 156 47
1.112339e+00 3.283106e-01 -1.185057e+01 165 139 38
4.513976e-01 3.835390e-01 -1.187573e+01 129 79 0
1.868692e-01 2.349559e-01 -1.148121e+01 158 128 1
3.221285e-02 3.178678e-01 -1.160875e+01 205 169 31
-1.034412e+00 1.937584e-01 -1.097245e+01 238 220 99
-6.239002e-01 -4.344660e-01 -9.846731e+00 105 112 49
1.740929e+01 2.883776e-01 -1.959855e+01 35 31 2
1.782980e+01 -2.886700e-01 -1.996010e+01 40 21 0
5.990247e+00 1.546195e+00 -1.596385e+01 201 184 96
5.591385e+00 1.399910e+00 -1.556799e+01 187 170 89
5.728890e+00 1.226353e+00 -1.539512e+01 116 98 7
1.060349e+01 -1.887146e+00 -1.201565e+01 70 68 11
-3.979012e-01 8.256095e-01 -9.105473e+00 239 159 7
1.105271e+01 -3.409096e+00 -1.262485e+01 32 29 0
3.545628e+00 -1.190273e+00 -9.733782e+00 93 66 0
5.286062e-01 6.718569e-01 -1.179858e+01 234 231 115
1.254330e+00 3.793438e-01 -1.219227e+01 114 94 7
4.629849e-01 5.372157e-01 -1.184675e+01 134 114 0
3.874075e-01 5.832291e-01 -1.229833e+01 94 65 0
3.884416e-01 4.424879e-01 -1.200724e+01 139 95 5
4.096923e-01 3.907083e-01 -1.190272e+01 162 108 7
3.513583e-01 3.814174e-01 -1.189534e+01 168 121 5
-2.329774e-02 4.397886e-01 -1.201346e+01 190 148 14
-5.680031e-02 4.304029e-01 -1.184655e+01 167 125 1
-8.982810e-02 4.195735e-01 -1.182071e+01 202 160 26
-1.392802e-01 4.493934e-01 -1.185647e+01 189 149 15
-1.802015e-01 3.715319e-01 -1.170511e+01 212 175 43
-6.409867e-01 -2.304526e-01 -9.649914e+00 43 58 19
-1.539557e+00 1.331769e-01 -1.058226e+01 247 226 85
1.059489e+01 -3.019962e+00 -1.275791e+01 42 37 0
-2.589293e-02 5.152132e-01 -1.203313e+01 172 130 0
1.792925e+00 -1.010550e+00 -9.499575e+00 203 162 38
1.721838e+01 3.889988e-01 -1.935005e+01 156 157 97
1.105474e+01 -2.101724e+00 -1.214178e+01 56 58 8
-4.631012e-01 8.644172e-01 -9.165716e+00 223 148 1
1.097677e+01 -3.025868e+00 -1.288796e+01 143 134 76
3.998538e-01 3.608293e-01 -1.184428e+01 171 118 10
2.905514e-01 3.140145e-01 -1.172157e+01 169 122 4
-6.465062e-01 -7.125092e-03 -9.477280e+00 41 53 15
-6.107609e-01 -5.417350e-01 -9.634613e+00 115 113 54
1.286943e+00 1.084773e+00 -1.175953e+01 30 35 3
1.107656e+01 -2.564387e+00 -1.237440e+01 62 61 6
1.003783e+01 -2.785575e+00 -1.186523e+01 35 43 2
1.354466e+00 6.210106e-01 -1.201500e+01 195 176 77
5.667059e-01 6.749594e-01 -1.179856e+01 231 225 115
8.711408e-01 2.489384e-01 -1.183473e+01 172 135 15
-4.309394e-01 7.799034e-01 -9.099152e+00 179 100 0
-4.568948e-01 7.704677e-01 -9.119890e+00 227 145 9
3.479634e+00 -1.035607e+00 -9.720749e+00 126 110 34
-1.072038e+00 1.702765e-01 -1.091512e+01 189 167 38
-6.329680e-01 8.664793e-02 -9.521825e+00 50 63 20
-4.753302e-01 -2.645243e-02 -1.082050e+01 246 248 151
-2.865603e-01 7.182858e-02 -1.100748e+01 239 241 144
-6.042098e-01 -3.195603e-02 -1.070467e+01 233 237 142
-4.350245e-01 8.306202e-01 -9.136194e+00 184 100 5
-4.888761e-01 7.806747e-01 -9.150048e+00 217 136 1
4.489347e-02 2.161446e-01 -1.152124e+01 244 245 141
5.229311e-01 5.973948e-01 -1.192020e+01 127 110 5
5.523027e-01 5.436219e-01 -1.185440e+01 134 109 8
4.757658e-01 5.663561e-01 -1.188029e+01 119 103 0
-1.037797e+00 2.281652e-01 -1.099427e+01 243 230 106
5.524475e-01 6.293070e-01 -1.196460e+01 96 85 0
-6.838613e-01 -5.488380e-01 -9.162909e+00 44 56 8
3.658907e+00 -9.783461e-01 -9.617633e+00 122 124 86
4.894396e-01 5.826857e-01 -1.193736e+01 165 154 47
-2.013681e-01 4.782672e-01 -1.186435e+01 184 151 0
9.633777e-01 1.153241e+00 -1.180667e+01 30 31 0
1.769380e+01 -3.875054e-01 -1.962532e+01 92 91 35
-1.805051e+00 2.237057e-01 -8.849375e+00 255 252 157
1.635269e+01 -1.692808e-01 -1.760456e+01 165 159 83
1.720974e+01 4.566307e+00 -1.517206e+01 113 109 40
1.780972e+01 3.826535e+00 -1.670946e+01 145 128 59
5.417828e-01 4.195131e-01 -1.182576e+01 118 66 0
-7.075174e-01 -4.668569e-01 -9.595042e+00 101 96 41
1.722453e+01 3.579379e+00 -1.568519e+01 162 145 76
-1.849164e-01 5.169965e-01 -8.900660e+00 53 52 21
6.777828e-01 -8.198863e-01 -8.886742e+00 199 174 76
1.706440e+01 4.418112e+00 -1.500239e+01 153 148 82
1.686232e+01 4.180532e+00 -1.467503e+01 121 117 46
1.746575e+01 4.342686e+00 -1.555625e+01 154 141 73
1.644455e+01 1.258171e+00 -1.582735e+01 159 146 78
1.721932e+01 3.943704e+00 -1.505642e+01 161 154 84
-6.122556e-01 -2.352916e-01 -9.563933e+00 21 31 0
1.794465e+01 -3.422936e-01 -1.961917e+01 117 111 51
1.807665e+01 -4.031117e-01 -2.015867e+01 94 74 40
1.807665e+01 -4.031117e-01 -2.015867e+01 94 74 40
4.511727e+00 -2.338946e-01 -1.140238e+01 133 95 57
8.176860e-01 8.620527e-01 -1.203953e+01 146 140 66
1.720739e+01 3.588638e-01 -1.934900e+01 154 155 98
1.931134e+01 2.583248e-01 -2.293220e+01 67 66 1
1.784734e+01 9.797538e-01 -2.060711e+01 150 159 94
1.087449e+01 -2.035232e+00 -1.221789e+01 157 153 82
1.587473e+01 2.968467e-01 -1.964163e+01 40 24 0
1.160872e+01 -5.128758e+00 -9.612895e+00 55 53 15
2.966011e+00 4.777525e-01 -1.288754e+01 202 184 79
3.005472e+00 1.240201e-01 -1.226608e+01 181 149 20
2.622760e+00 4.495068e-01 -1.271747e+01 137 104 2
2.622760e+00 4.495068e-01 -1.271747e+01 137 104 2
1.271530e+00 1.074912e-01 -1.171134e+01 199 160 6
5.409164e-01 6.360100e-01 -1.190051e+01 193 184 67
5.336392e-01 6.166090e-01 -1.191134e+01 134 124 13
5.597631e-01 5.322102e-01 -1.180497e+01 159 140 36
4.621113e-01 5.656189e-01 -1.183042e+01 195 174 55
4.609220e-01 5.723711e-01 -1.185943e+01 119 103 0
3.460601e-01 7.805417e-01 -1.221124e+01 16 21 0
4.326196e-01 4.484930e-01 -1.191240e+01 130 80 0
4.326196e-01 4.484930e-01 -1.191240e+01 130 80 0
1.014593e-01 2.594526e-01 -1.145954e+01 249 231 107
-1.731139e-02 5.076238e-01 -1.195960e+01 178 147 2
-1.614964e-01 3.204458e-01 -1.157964e+01 249 243 118
-9.846198e-01 2.481281e-01 -1.107313e+01 245 233 121
1.077684e+01 -3.031024e+00 -9.901159e+00 46 53 1
1.164071e+01 -5.050855e+00 -9.624476e+00 52 50 3
1.171838e+01 -5.264198e+00 -9.798816e+00 109 109 63
-3.304930e-01 1.032118e+00 -9.307898e+00 186 122 0
1.165384e+01 -5.403274e+00 -9.873491e+00 111 113 63
1.172498e+01 -5.524779e+00 -9.848380e+00 38 41 0
-2.803294e-01 8.947646e-01 -9.120942e+00 253 177 13
2.567459e+00 5.256459e-01 -1.268490e+01 223 197 84
-4.936844e-01 8.527119e-01 -9.178975e+00 205 133 0
1.985863e+00 2.268704e-01 -1.199233e+01 170 142 0
1.960050e+00 8.404129e-02 -1.175096e+01 215 186 32
1.932127e+00 2.691942e-02 -1.177918e+01 227 198 44
1.309730e+00 5.488800e-01 -1.206415e+01 181 155 72
1.108076e+00 -2.246627e-02 -1.119080e+01 136 116 2
-3.903783e-02 4.563468e-01 -1.185615e+01 185 149 9
1.251226e+01 -2.641098e+00 -1.196363e+01 31 40 8
1.032430e+01 -2.178581e+00 -1.185195e+01 42 50 3
1.164468e+01 -5.637692e+00 -9.616806e+00 52 56 2
2.954791e+00 3.669150e-01 -1.267895e+01 113 87 0
2.721823e+00 4.316464e-01 -1.268888e+01 100 75 0
2.274834e+00 1.984064e-01 -1.201306e+01 141 115 5
2.065150e+00 4.404952e-01 -1.239897e+01 219 188 61
1.949588e+00 5.546961e-02 -1.177598e+01 184 155 1
1.374349e+00 4.356454e-01 -1.213824e+01 178 142 22
1.273756e+00 8.112046e-03 -1.132156e+01 195 164 8
1.061465e+00 -1.280748e-02 -1.122054e+01 146 122 5
2.645341e-01 4.007705e-01 -1.182061e+01 165 119 0
-5.856827e-01 3.588242e-01 -9.256761e+00 0 13 0
-6.203892e-01 3.727410e-01 -9.251600e+00 23 38 17
-5.273313e-01 -5.809691e-01 -9.527174e+00 71 73 16
9.781747e+00 -2.830596e+00 -1.029577e+01 24 29 6
9.781747e+00 -2.830596e+00 -1.029577e+01 24 29 6
2.688373e+00 2.820860e-01 -1.235022e+01 223 195 57
2.665677e+00 3.869940e-01 -1.266431e+01 221 189 67
1.088413e+00 9.784133e-01 -1.179707e+01 10 11 0
-5.420724e-01 8.459673e-01 -9.236099e+00 186 121 4
1.237281e+00 1.615685e-01 -1.168472e+01 197 153 4
1.106013e+00 1.065370e-01 -1.146028e+01 194 155 2
5.163588e-01 6.096210e-01 -1.186010e+01 191 180 55
7.354966e-01 2.442952e-01 -1.171371e+01 202 163 27
8.594914e-02 7.990666e-02 -1.111840e+01 242 244 137
9.954189e+00 -2.746135e+00 -1.019813e+01 13 18 0
-5.207924e-01 6.251650e-01 -9.096240e+00 166 95 4
-5.892517e-01 5.693844e-01 -9.231042e+00 158 94 0
4.613793e-01 3.451244e-01 -1.180946e+01 197 150 19
2.679010e-01 5.223039e-01 -1.208178e+01 138 111 0
2.592889e-01 1.790658e-01 -1.145393e+01 249 233 113
1.002003e+01 -2.744545e+00 -1.039548e+01 7 11 0
-3.514210e-01 8.660776e-01 -9.125584e+00 223 144 0
-4.357868e-01 7.824327e-01 -9.095863e+00 174 95 0
-5.998417e-01 5.275196e-01 -9.293417e+00 40 35 1
1.139871e+01 -4.590071e+00 -9.360347e+00 124 124 52
1.143267e+01 -9.306869e-01 -1.901168e+01 11 3 3
1.122465e+00 3.027710e-01 -1.195222e+01 144 115 0
-5.094715e-02 -5.476711e-02 -1.082957e+01 231 235 125
-7.821885e-01 -2.956904e-01 -1.005681e+01 216 219 114
5.710953e-01 3.786134e-01 -1.182470e+01 143 97 8
4.164463e-01 1.918610e-01 -1.147027e+01 186 146 0
-5.307170e-01 -3.847785e-01 -9.069123e+00 185 190 112
1.126639e+01 -1.989276e+00 -1.193886e+01 15 20 0
8.689767e-01 8.408771e-01 -1.201763e+01 137 124 39
8.689767e-01 8.408771e-01 -1.201763e+01 137 124 39
-5.180211e-01 7.234548e-01 -9.145837e+00 206 121 3
1.390466e+00 1.010169e+00 -1.173238e+01 178 177 125
2.526424e-01 5.917405e-01 -1.015015e+01 16 17 0
1.833073e+01 -2.313078e-01 -1.994739e+01 96 84 33
-5.842632e-01 3.655911e-01 -9.183122e+00 21 36 13
1.236882e+00 7.057000e-01 -1.183911e+01 89 89 27
5.975218e-01 7.337813e-01 -1.188177e+01 133 122 40
5.249324e-01 7.199577e-01 -1.192447e+01 140 129 47
2.059931e+00 4.252814e-01 -1.243083e+01 138 113 12
1.889491e+00 2.943445e-01 -1.209045e+01 191 168 68
6.359805e-01 5.521767e-01 -1.182068e+01 163 150 96
4.644351e-01 6.018608e-01 -1.183734e+01 199 181 74
4.534725e-01 5.539929e-01 -1.179814e+01 122 105 0
7.334744e-01 4.612960e-01 -1.184261e+01 88 66 19
3.907303e-01 4.644086e-01 -1.176921e+01 143 92 0
3.902393e-01 4.702116e-01 -1.201409e+01 94 56 2
5.930078e-01 3.596697e-01 -1.185014e+01 163 118 33
4.289185e-01 3.844995e-01 -1.185819e+01 118 66 1
2.456051e-01 4.182360e-01 -1.187057e+01 188 142 27
2.686822e-01 3.555961e-01 -1.164820e+01 176 127 10
9.466334e-02 2.987448e-01 -1.155072e+01 191 150 33
-6.097058e-01 -9.572072e-03 -9.603578e+00 56 63 47
-6.664569e-01 -7.114127e-03 -9.559735e+00 27 40 10
-9.277757e-01 2.147769e-01 -1.113529e+01 222 208 113
-9.854412e-01 2.131155e-01 -1.102924e+01 254 251 166
1.793791e+00 -1.810275e+00 -1.047749e+01 12 25 1
-5.766357e-01 -4.847973e-01 -9.798459e+00 65 66 22
2.409596e-01 7.026345e-01 -1.010012e+01 161 156 95
2.489699e-01 6.815143e-01 -1.011640e+01 69 67 13
2.489699e-01 6.815143e-01 -1.011640e+01 69 67 13
-6.329912e-01 4.187683e-01 -9.321542e+00 28 43 16
3.202914e+00 -5.710484e-02 -1.201344e+01 129 106 8
5.581454e-01 6.065069e-01 -1.179735e+01 92 73 0
1.893607e+00 2.980869e-01 -1.205532e+01 117 97 5
1.286863e+00 4.672366e-01 -1.212726e+01 174 158 87
1.317894e+00 7.145796e-02 -1.145090e+01 200 168 47
-1.651111e-01 4.531707e-01 -1.181030e+01 185 144 26
-6.384555e-01 2.055498e-02 -9.558083e+00 81 91 64
-6.384555e-01 2.055498e-02 -9.558083e+00 81 91 64
-6.292938e-01 1.211684e-03 -9.567715e+00 8 18 1
-6.098924e-01 -2.454039e-02 -9.603859e+00 9 20 0
-5.403377e-01 8.412928e-01 -9.239129e+00 196 124 4
2.380159e-01 9.533675e-01 -9.789825e+00 206 140 4
9.362155e-01 1.550110e+00 -1.200284e+01 93 99 56
9.086137e-01 1.551584e+00 -1.209371e+01 93 94 63
7.872949e-01 1.433353e+00 -1.191923e+01 1 5 0
2.742080e-01 7.157403e-01 -1.013196e+01 62 58 0
-5.514985e-01 5.006725e-01 -9.146136e+00 128 78 7
5.219305e-01 6.946388e-01 -1.193774e+01 195 185 98
5.015498e-01 6.433613e-01 -1.175784e+01 98 82 0
4.950920e-01 6.538168e-01 -1.180543e+01 115 103 6
2.288615e+00 1.952306e-01 -1.202380e+01 119 99 4
1.998878e-01 5.203963e-01 -1.200837e+01 126 91 0
-6.473748e-01 -3.141568e-03 -9.551337e+00 63 73 46
-6.266679e-01 -1.789354e-01 -9.677430e+00 28 43 12
-9.895528e-01 2.190497e-01 -1.111669e+01 207 184 64
-6.310598e-01 -1.908802e-01 -9.698104e+00 31 45 12
-4.180231e-01 -3.420950e-01 -1.017576e+01 197 195 118
-2.928072e-01 8.763258e-01 -9.120374e+00 220 146 0
9.698022e-01 1.467736e+00 -1.198322e+01 14 11 0
7.989264e-01 1.383178e+00 -1.184652e+01 72 75 43
-5.695889e-01 6.063485e-01 -9.336833e+00 130 46 1
4.348561e+00 3.636974e-01 -1.329006e+01 177 164 85
2.954181e+00 1.366515e-02 -1.195558e+01 114 91 2
2.730239e+00 7.354487e-02 -1.197396e+01 119 100 7
-6.144358e-01 3.091073e-01 -9.469090e+00 10 26 0
-6.076240e-01 5.197137e-03 -9.615681e+00 0 5 0
-5.255176e-01 -3.339864e-01 -9.077526e+00 209 212 162
-4.729399e-01 7.412317e-01 -9.115469e+00 205 122 0
-4.877620e-01 7.143363e-01 -9.111509e+00 222 140 5
-5.205386e-01 6.624469e-01 -9.436731e+00 193 110 0
-5.641107e-01 5.146607e-01 -9.168852e+00 172 112 21
-2.486077e-01 2.425347e-01 -9.001915e+00 7 18 1
-6.321028e-01 4.066909e-01 -9.376823e+00 24 40 11
5.359057e-01 6.749509e-01 -1.176939e+01 222 212 101
-6.067998e-01 3.583165e-01 -9.449786e+00 9 25 0
4.976576e-01 6.095537e-01 -1.184815e+01 189 170 57
1.177082e+00 4.680564e-01 -1.209775e+01 29 24 4
6.406102e-01 4.681504e-01 -1.182441e+01 166 135 45
-1.961442e-01 4.357481e-01 -1.181215e+01 211 172 53
-6.348444e-01 -2.111614e-01 -9.645775e+00 35 50 18
8.685092e-01 1.415976e+00 -1.194233e+01 72 76 25
-5.790173e-01 5.397405e-01 -9.224415e+00 170 106 8
-5.849104e-01 4.361439e-01 -9.357118e+00 14 30 3
-5.925230e-01 4.249713e-01 -9.391132e+00 36 49 21
-4.010394e-01 2.639559e-01 -1.144205e+01 239 238 159
-6.508931e-01 -1.875712e-01 -9.517248e+00 25 42 10
-6.120873e-01 -2.735044e-01 -9.536439e+00 26 42 15
-5.754353e-01 6.188399e-01 -9.376040e+00 177 101 3
-5.929866e-01 5.859067e-01 -9.307354e+00 165 92 0
-4.915923e-01 5.869419e-01 -9.511621e+00 56 64 27
-5.107707e-01 5.487478e-01 -9.486759e+00 30 41 9
-5.533729e-01 5.122389e-01 -9.399543e+00 0 6 1
-6.684885e-01 3.648525e-01 -9.266408e+00 14 24 0
2.287127e+00 5.553565e-02 -1.182350e+01 208 177 60
1.145773e+00 -9.733070e-03 -1.128978e+01 154 122 4
2.838541e-02 -7.655465e-02 -1.086719e+01 229 232 143
-7.587455e-02 -8.562555e-02 -1.061660e+01 235 235 147
-5.296284e-01 -1.423104e-01 -9.954467e+00 59 77 39
-6.109018e-01 -1.874658e-01 -9.740372e+00 46 59 29
-5.259588e-01 7.459014e-01 -9.354368e+00 178 97 0
-5.385733e-01 6.971445e-01 -9.365515e+00 212 126 1
8.406475e-01 1.330522e+00 -1.182085e+01 6 6 3
-5.505110e-01 5.153918e-01 -9.451352e+00 41 54 24
8.729822e-01 8.618999e-01 -1.197661e+01 152 137 69
8.729822e-01 8.618999e-01 -1.197661e+01 152 137 69
6.699303e-01 3.657114e-01 -1.189038e+01 120 78 0
-1.277680e-01 3.573379e-01 -1.158733e+01 180 144 30
-6.223329e-01 6.801585e-02 -9.594598e+00 1 8 0
-5.968514e-01 -9.289304e-02 -9.687295e+00 38 51 21
-7.216243e-01 -5.405204e-01 -9.193044e+00 25 42 6
-4.634682e-01 7.860295e-01 -9.158275e+00 225 143 0
-5.519915e-01 5.618089e-01 -9.370928e+00 1 0 0
-5.935059e-01 4.407028e-01 -9.435379e+00 6 17 1
-6.044891e-01 3.662841e-01 -9.471747e+00 10 22 0
4.904361e-01 6.959829e-01 -1.181638e+01 237 226 117
-6.223772e-01 3.203186e-01 -9.429960e+00 34 51 17
1.174258e+00 1.117828e+00 -1.165001e+01 32 31 0
-5.159062e-01 7.575704e-01 -9.244439e+00 174 101 0
1.275842e+00 2.508574e-02 -1.140224e+01 195 165 37
1.226343e+00 -1.915431e-01 -1.091882e+01 231 234 129
1.639285e+01 4.768992e-01 -1.945049e+01 31 23 2
1.712294e+01 3.087912e-01 -1.944394e+01 32 27 7
1.954300e+00 -1.496481e-02 -1.155049e+01 208 180 45
2.032264e+00 -1.318911e+00 -8.927593e+00 188 167 78
-6.268566e-01 7.106831e-02 -9.579196e+00 10 23 4
-3.926640e-01 7.120201e-01 -9.555178e+00 207 132 4
1.571252e+01 3.044095e-01 -1.955023e+01 38 27 6
1.682288e+01 -1.600348e+00 -1.862511e+01 124 122 60
1.602089e+01 -1.129054e+00 -1.946561e+01 33 13 2
3.114255e+00 1.552142e-01 -1.224039e+01 187 152 24
3.011090e+00 1.516924e-01 -1.225793e+01 125 91 3
9.763409e-02 2.763273e-01 -1.146680e+01 163 136 7
-6.460591e-01 -3.454340e-01 -9.807359e+00 61 75 23
9.586369e+00 -2.499633e+00 -1.012720e+01 57 64 30
3.152274e+00 3.105529e-01 -1.263848e+01 97 65 0
2.520283e+00 1.693187e-01 -1.197369e+01 216 187 50
2.136381e+00 3.393999e-01 -1.236450e+01 219 189 60
3.902913e+00 -4.925238e+00 -9.435354e+00 212 214 107
1.869023e+01 -7.759359e-01 -2.035500e+01 53 46 1
1.765899e+01 -1.082628e+00 -1.994198e+01 23 18 0
9.784082e+00 -2.711361e+00 -1.051650e+01 15 19 3
8.631184e-01 4.823407e-02 -1.125342e+01 198 176 34
7.358005e-01 1.126513e-01 -1.137023e+01 218 192 53
1.252513e+01 -3.270411e+00 -1.197382e+01 30 38 1
1.288981e+01 -1.075858e-02 -1.995060e+01 78 71 0
1.670506e-01 2.933068e-01 -1.151108e+01 165 126 0
4.487137e+00 -3.013067e-01 -1.173844e+01 98 84 4
4.380096e+00 -2.672829e-01 -1.174641e+01 196 178 78
-2.511829e-01 8.912031e-01 -9.135028e+00 235 157 0
3.837322e+00 -1.684303e-01 -1.178972e+01 165 145 29
-3.506417e-01 1.027389e+00 -9.292024e+00 223 156 8
-3.767854e-01 1.004562e+00 -9.295297e+00 202 136 0
3.536931e+00 1.672282e-02 -1.217125e+01 140 112 5
3.419522e+00 6.933561e-02 -1.226539e+01 186 157 48
3.095823e+00 -1.770900e-02 -1.188072e+01 136 109 0
3.090781e+00 2.722273e-02 -1.197601e+01 186 168 53
2.149018e+00 -1.649929e+00 -8.384146e+00 193 163 56
2.790252e+00 -1.226431e-01 -1.169157e+01 222 184 46
2.905859e+00 -4.792753e-02 -1.199938e+01 186 152 29
2.796026e+00 4.635644e-01 -1.266739e+01 205 195 98
2.570935e+00 2.807877e-01 -1.230220e+01 126 103 0
-5.332860e-01 8.593794e-01 -9.233134e+00 185 116 4
2.392119e+00 2.734553e-01 -1.239486e+01 200 174 51
2.101959e+00 2.841436e-01 -1.202568e+01 219 197 77
1.952669e+00 3.200973e-01 -1.208354e+01 211 185 65
-1.043587e-02 6.807426e-01 -9.916006e+00 55 50 7
1.424427e+00 -1.074895e-01 -1.101306e+01 243 227 113
1.085988e+00 -3.231765e-02 -1.119036e+01 237 226 118
1.052724e+00 -6.439623e-03 -1.119510e+01 143 125 11
1.237874e+00 4.056814e-01 -1.219802e+01 97 87 23
1.030240e+00 -1.407087e-02 -1.118381e+01 244 233 126
1.021754e+00 -2.351207e-02 -1.121608e+01 237 225 109
6.151139e-01 5.744684e-01 -1.178787e+01 209 189 101
6.015452e-01 5.604170e-01 -1.176552e+01 90 66 1
4.833356e-01 4.170223e-01 -1.184195e+01 126 77 3
4.109166e-01 3.820178e-01 -1.181326e+01 162 114 6
1.869534e-02 3.115692e-01 -1.145483e+01 213 197 86
-2.272106e-02 3.065811e-01 -1.152091e+01 208 190 81
-6.450277e-01 6.377428e-03 -9.560628e+00 73 87 51
-6.483178e-01 2.114241e-02 -9.620979e+00 35 44 16
-5.527829e-01 -1.190863e-01 -9.914499e+00 55 69 34
-3.698695e-01 -2.898571e-01 -1.017425e+01 128 133 74
4.447209e+00 -2.758626e-01 -1.182531e+01 138 117 3
-2.716113e-01 1.055735e+00 -9.364092e+00 179 111 0
4.075847e+00 -1.276090e-01 -1.209773e+01 117 93 0
4.075847e+00 -1.276090e-01 -1.209773e+01 117 93 0
3.771630e+00 -2.687172e-01 -1.177193e+01 196 171 54
3.619150e+00 -6.487722e-03 -1.215691e+01 122 93 0
-3.656857e-01 9.878457e-01 -9.305412e+00 220 154 16
-1.479148e-01 9.553495e-01 -9.531657e+00 181 109 1
3.349633e+00 4.441610e-02 -1.203429e+01 214 187 74
3.722580e+00 -4.853629e-01 -1.171418e+01 213 183 49
-3.869939e-01 8.223082e-01 -9.091085e+00 230 150 2
3.199972e+00 1.056305e-01 -1.220807e+01 109 82 2
3.065830e+00 7.106907e-03 -1.199687e+01 208 181 64
2.840552e+00 1.960860e-01 -1.231715e+01 126 100 0
2.124772e+00 1.904675e-01 -1.198812e+01 170 146 27
1.995533e+00 -1.842335e-01 -1.127663e+01 192 163 25
1.917789e+00 -1.689208e-01 -1.125677e+01 207 178 37
1.254841e+00 -5.820767e-02 -1.116160e+01 200 186 63
1.230925e+00 -7.453806e-02 -1.115834e+01 254 243 131
1.573807e+00 2.827073e-01 -1.226651e+01 178 139 20
1.112092e+00 -2.866125e-02 -1.115744e+01 249 233 118
1.300974e+00 2.535259e-01 -1.204827e+01 170 140 29
1.020252e+00 5.153090e-01 -1.203090e+01 18 6 0
8.844247e-01 -1.356500e-01 -1.080880e+01 95 103 36
8.907004e-01 -1.261560e-01 -1.088077e+01 202 206 117
