ply
format ascii 1.0
element face 0
property list uchar int vertex_indices
element vertex 945
property float x
property float y
property float z
property uchar diffuse_red
property uchar diffuse_green
property uchar diffuse_blue
end_header
1.969782e+00 -3.449938e-01 -1.074032e+01 237 217 123
-1.465753e+00 -1.443233e-01 -1.017282e+01 232 198 75
-1.511052e+00 -2.674395e-01 -9.904086e+00 241 216 91
-3.824097e-01 8.237989e-01 -9.068896e+00 238 153 7
-4.858425e-01 6.381459e-01 -9.074920e+00 187 104 3
-5.567536e-01 5.816179e-01 -9.232968e+00 170 98 0
5.777313e-02 1.072856e+00 -1.215570e+01 65 62 3
5.777313e-02 1.072856e+00 -1.215570e+01 65 62 3
1.045168e-01 9.917705e-01 -1.220436e+01 66 67 5
1.114131e-01 9.932994e-01 -1.222449e+01 66 67 5
-9.547970e-01 3.594268e-01 -8.824767e+00 29 21 2
-2.969778e-01 6.820266e-01 -1.224280e+01 144 114 0
4.562284e-01 -1.879484e-01 -9.839652e+00 4 2 0
-1.035120e+00 1.736860e-01 -1.094540e+01 194 171 48
-5.397648e-01 5.473610e-01 -9.149229e+00 164 90 0
-5.658136e-01 4.677349e-01 -9.114581e+00 42 47 7
-9.517973e-01 1.099049e+00 -1.285273e+01 246 215 91
-2.105937e-01 4.428172e-01 -1.174701e+01 212 173 37
2.233287e+00 -3.402712e-01 -1.078327e+01 207 180 67
-1.184772e+00 3.755318e-01 -1.134012e+01 214 183 56
-4.174373e-01 -3.332222e-01 -9.107974e+00 49 55 17
-6.923343e-01 -6.667849e-01 -9.328424e+00 163 155 82
-5.016588e-01 6.165522e-01 -9.097296e+00 174 94 0
8.272184e-03 1.048838e+00 -1.221004e+01 54 61 15
2.821469e+00 -3.684404e-01 -1.116895e+01 211 181 69
-1.108320e+00 5.092300e-01 -1.160772e+01 252 222 92
-1.338006e+00 3.426490e-01 -1.110424e+01 247 214 88
-1.204337e+00 8.562087e-02 -1.068017e+01 244 215 88
-1.249923e+00 2.782224e-02 -1.060281e+01 243 214 84
-5.396405e-01 5.182216e-01 -9.144390e+00 168 103 12
-2.851995e-02 1.120398e+00 -1.220026e+01 147 143 70
-2.851995e-02 1.120398e+00 -1.220026e+01 147 143 70
-3.927446e-01 3.530657e-01 -9.131383e+00 4 6 0
-1.196621e+00 3.642426e-02 -1.058590e+01 232 202 84
3.607078e-01 -7.025658e-01 -9.473289e+00 200 194 106
-7.392996e-01 -4.638284e-01 -9.712490e+00 218 209 112
-7.036210e-01 -6.492669e-01 -9.390183e+00 166 159 79
-5.838967e-01 5.485878e-01 -9.392480e+00 162 157 76
-3.466271e-01 3.272048e-01 -9.136640e+00 64 62 10
-5.178802e-01 3.203658e-01 -9.138966e+00 18 31 1
-1.138955e+00 9.678442e-02 -1.075054e+01 225 199 75
-6.167236e-01 -1.783370e-01 -9.456348e+00 61 70 27
-4.901199e-01 -2.155891e-01 -9.070326e+00 35 46 17
-4.169878e-01 8.265783e-01 -9.108889e+00 195 103 2
-5.802994e-01 -3.638972e-01 -9.105703e+00 36 47 17
-2.872387e-02 9.632080e-01 -1.228188e+01 153 146 66
-3.168496e-01 6.685653e-01 -1.229814e+01 168 131 13
-4.099673e-01 4.231988e-01 -9.154773e+00 9 18 0
2.514054e-01 -7.513540e-01 -9.354926e+00 200 194 106
-5.211805e-01 6.116228e-01 -9.242532e+00 186 107 2
-5.090749e-01 4.620459e-01 -9.111696e+00 27 31 7
-1.620501e-01 7.890235e-01 -1.215673e+01 25 18 1
-2.218366e-01 9.716664e-01 -1.217340e+01 30 29 0
-5.005369e-01 5.754886e-01 -9.083519e+00 176 100 6
7.603710e+00 8.079432e+00 -2.794215e+01 53 60 8
5.694153e+00 6.318520e+00 -2.462402e+01 54 59 41
-6.172246e-02 1.271773e+00 -1.206552e+01 13 17 0
-6.172246e-02 1.271773e+00 -1.206552e+01 13 17 0
5.420390e-01 9.167451e-01 -1.210104e+01 91 89 12
5.453647e-01 9.167030e-01 -1.210700e+01 91 89 12
3.225412e+00 -4.914032e-01 -1.093023e+01 202 173 56
-1.094589e-01 4.531536e-01 -1.178689e+01 183 146 6
-7.703314e-01 4.647033e-01 -1.162083e+01 236 215 90
-8.961041e-01 3.234069e-01 -1.127443e+01 215 186 66
-1.459198e+00 -8.407756e-02 -1.029044e+01 198 166 47
-5.750368e-01 3.655288e-01 -9.151948e+00 25 42 9
-1.443582e+00 -1.122612e-01 -1.024573e+01 228 201 70
-5.483282e-01 4.837014e-01 -9.176408e+00 36 44 5
4.246604e-01 9.484116e-01 -1.214465e+01 92 90 16
3.162893e+00 -4.934593e-01 -1.093073e+01 185 155 40
2.498270e+00 -7.191224e-01 -1.028397e+01 191 170 53
2.661338e-01 9.919186e-01 -1.216246e+01 113 113 41
5.233643e-01 9.190871e-01 -1.211625e+01 90 88 11
5.233643e-01 9.190871e-01 -1.211625e+01 90 88 11
-5.570876e-02 9.368149e-01 -1.234929e+01 140 140 72
-7.232868e-02 9.331858e-01 -1.230433e+01 140 140 72
1.959030e-01 6.539832e-01 -1.230073e+01 107 87 21
2.079832e-01 5.557667e-01 -1.210881e+01 124 97 0
-1.415679e+00 -1.063745e-01 -1.027453e+01 246 222 88
3.574641e-01 1.726858e+00 -1.223703e+01 4 6 0
3.571315e-01 1.597581e+00 -1.207481e+01 3 3 9
-4.842670e-01 5.240419e-01 -9.075999e+00 101 43 1
4.620826e-01 8.820543e-01 -1.213207e+01 140 138 61
4.207964e+00 -3.336853e-01 -1.160895e+01 96 84 2
4.109919e-01 5.694080e-01 -1.219890e+01 94 74 4
-1.466988e+00 1.136435e-01 -1.069938e+01 197 173 46
-5.622095e-01 5.040973e-01 -9.178884e+00 39 30 0
1.209673e-01 1.081086e+00 -1.215174e+01 150 153 81
2.313083e-01 1.054592e+00 -1.214247e+01 153 155 77
1.657315e-01 1.016933e+00 -1.217514e+01 43 53 7
1.657315e-01 1.016933e+00 -1.217514e+01 43 53 7
-8.062223e-01 3.998622e-01 -1.145401e+01 163 136 18
-5.955810e-01 -2.060048e-01 -9.122946e+00 19 32 1
-5.859101e-01 -2.530736e-01 -9.126077e+00 24 38 5
-1.524089e+00 -7.978538e-02 -1.030840e+01 237 209 86
-3.027715e-02 5.804203e-01 -1.210354e+01 155 126 7
3.889798e-02 1.005967e+00 -1.223084e+01 149 159 96
2.077727e+01 3.137039e+00 -3.024273e+01 150 151 47
2.527319e+01 1.630499e+01 -4.511607e+01 146 96 53
2.005793e+01 2.503916e+00 -2.897669e+01 162 129 0
2.480012e+01 1.597973e+01 -4.560470e+01 175 147 97
2.528116e+01 1.586209e+01 -4.561059e+01 129 102 51
2.370421e+01 1.661472e+01 -4.536751e+01 173 157 98
2.704498e+01 1.643621e+01 -4.587731e+01 168 145 95
2.704498e+01 1.643621e+01 -4.587731e+01 168 145 95
2.704498e+01 1.643621e+01 -4.587731e+01 168 145 95
2.435921e+01 1.602372e+01 -4.587216e+01 146 121 64
-2.673202e-01 6.601626e-01 -8.369542e+00 149 159 95
1.983409e+01 2.581745e+00 -2.899287e+01 193 170 22
2.682568e+01 1.534796e+01 -4.477557e+01 158 151 113
-5.442300e-01 4.937177e-01 -9.146463e+00 55 33 0
2.617259e-01 -1.009331e-01 -8.466027e+00 189 164 56
2.480898e+01 2.173149e+00 -3.102818e+01 193 180 27
1.589357e+01 4.688464e-01 -1.945050e+01 127 135 87
3.288787e-01 9.724514e-01 -1.214014e+01 108 104 33
-5.712234e-01 3.521358e-01 -9.156877e+00 23 37 1
3.342181e+00 -4.336242e-01 -1.112148e+01 201 171 57
2.335457e+00 -5.466862e-01 -1.054704e+01 183 151 38
2.544096e+00 -7.033820e-01 -1.028112e+01 191 169 52
6.916856e-02 1.075470e+00 -1.215739e+01 54 62 2
4.703453e-01 9.309476e-01 -1.210775e+01 88 86 11
4.802970e-01 9.044219e-01 -1.212163e+01 134 132 55
4.772365e+00 -2.145481e-01 -1.209334e+01 186 171 80
4.605315e+00 -2.160742e-01 -1.215737e+01 115 96 3
-7.220942e-01 4.977845e-01 -9.898289e+00 21 19 3
3.581993e+00 -3.214534e-01 -1.150276e+01 195 168 53
-2.966702e-01 7.150340e-01 -1.248657e+01 151 123 0
-3.173071e-02 5.202813e-01 -1.195995e+01 156 125 0
3.467351e+00 -6.574176e-01 -1.090958e+01 172 147 28
1.750291e-01 -4.560713e-01 -8.540708e+00 214 213 119
-5.211362e-01 4.642042e-01 -9.106700e+00 27 32 8
3.201468e+00 -2.312187e-01 -1.112041e+01 177 152 51
-4.469258e-01 7.456830e-01 -1.240524e+01 172 139 24
-6.398346e-01 -4.622130e-01 -9.705911e+00 126 124 51
3.970912e+00 -2.826336e-01 -1.156893e+01 119 107 20
3.151833e-01 1.688084e+00 -1.212456e+01 4 6 0
3.813131e-01 1.743706e+00 -1.229401e+01 4 6 0
1.593765e+01 4.173914e-01 -1.916052e+01 27 33 1
2.302608e+01 1.647706e+00 -2.932386e+01 134 121 1
-3.344993e-01 1.466478e+00 -1.246111e+01 26 27 0
5.952962e-01 8.816194e-01 -1.227705e+01 138 136 59
4.476183e+00 -2.875578e-01 -1.178342e+01 185 173 87
3.916114e-02 5.918545e-01 -1.207379e+01 116 90 0
1.369448e-01 5.386164e-01 -1.221463e+01 166 136 9
-6.644889e-01 -3.819169e-01 -9.260306e+00 26 42 5
-2.870718e-01 8.026325e-01 -8.933730e+00 224 166 22
1.496204e-01 1.412674e+00 -1.199335e+01 74 83 38
1.588368e+01 6.089571e-01 -1.935798e+01 145 159 100
4.151928e+00 -3.915585e-01 -1.163237e+01 203 179 70
-8.999811e-02 5.410640e-01 -1.192784e+01 172 142 9
-4.704859e-01 1.249291e-01 -9.289512e+00 14 27 1
2.049945e+00 -6.720423e-01 -1.037467e+01 205 179 58
-1.976696e-01 9.226083e-01 -1.251293e+01 23 22 1
5.799795e-01 -3.952388e-01 -9.519036e+00 225 226 133
-3.902950e-01 1.005120e+00 -1.089521e+01 15 18 0
-1.759933e-01 7.896571e-01 -8.994406e+00 103 70 0
3.113914e-01 1.745279e+00 -1.225575e+01 113 113 67
1.012226e+00 1.507086e+00 -1.199875e+01 108 115 72
-4.800847e-01 5.693196e-01 -9.045679e+00 141 74 9
-1.185953e-02 1.243750e+00 -1.207452e+01 27 31 8
-3.863474e-02 1.250585e+00 -1.207950e+01 28 31 10
6.139765e-01 7.443133e-01 -1.192986e+01 131 126 33
3.330046e+00 -4.239472e-01 -1.112464e+01 207 166 53
6.758438e-01 5.567694e-01 -1.182288e+01 161 144 65
5.347514e-01 6.118173e-01 -1.194384e+01 94 79 2
-5.886206e-01 3.703658e-01 -9.164390e+00 27 37 12
5.903645e-01 5.263238e-01 -1.180812e+01 142 132 35
5.941059e-01 4.977985e-01 -1.179783e+01 133 123 4
3.068951e+00 -5.029793e-01 -1.088898e+01 224 184 73
6.015133e-01 4.725008e-01 -1.175937e+01 177 140 37
3.762879e+00 -9.094523e-01 -1.020521e+01 75 58 4
3.826614e-01 6.036441e-01 -1.218326e+01 75 56 20
4.428655e-01 5.615185e-01 -1.218721e+01 79 52 0
5.661110e-01 3.865397e-01 -1.181897e+01 172 126 32
-3.255759e-01 7.284972e-01 -1.211474e+01 116 92 0
4.462905e-01 3.889986e-01 -1.182030e+01 127 77 2
4.825415e-01 3.861267e-01 -1.187520e+01 127 77 2
4.281248e-01 4.383938e-01 -1.207137e+01 130 90 0
3.483733e+00 -9.640064e-01 -1.039013e+01 182 145 31
-5.410169e-01 6.749404e-01 -1.212938e+01 188 148 17
-6.049590e-01 2.590652e-01 -9.489696e+00 27 38 8
-2.928928e-01 3.841654e-01 -1.163391e+01 189 163 45
-6.941047e-01 2.345901e-01 -9.457012e+00 43 50 16
-4.111717e-01 4.201878e-01 -1.159862e+01 182 154 35
-6.573511e-01 5.306938e-01 -1.176518e+01 206 165 37
-7.304279e-01 5.099976e-01 -1.167775e+01 188 149 20
-1.056954e+00 1.857225e-01 -1.092987e+01 219 189 65
1.790382e+01 1.166492e-01 -1.943290e+01 155 151 90
8.728912e-01 1.151320e+00 -1.171925e+01 30 33 2
-5.411200e-01 6.436518e-01 -9.312503e+00 185 97 9
4.523362e+00 -2.193621e-01 -1.137453e+01 161 152 75
6.558169e+00 -6.846172e-01 -1.214084e+01 164 157 91
4.211240e+00 -3.316990e-01 -1.103101e+01 52 47 7
4.246022e+00 -3.364979e-01 -1.104816e+01 52 47 7
1.689170e+00 5.199507e-01 -1.252722e+01 185 175 102
6.720627e-01 6.454317e-01 -1.184015e+01 87 75 0
5.298285e-01 6.301999e-01 -1.188316e+01 123 105 8
5.390989e-01 6.383338e-01 -1.195111e+01 190 179 100
5.849241e-01 5.502677e-01 -1.179728e+01 89 74 1
5.813208e-01 5.509218e-01 -1.179185e+01 89 74 1
4.871016e-01 5.594154e-01 -1.176843e+01 119 105 0
1.276592e+00 3.841497e-01 -1.218206e+01 116 101 25
5.524774e-01 5.118971e-01 -1.180007e+01 124 109 1
4.257330e-01 4.731852e-01 -1.192545e+01 188 142 54
4.257330e-01 4.731852e-01 -1.192545e+01 188 142 54
5.030339e-01 4.193772e-01 -1.183623e+01 123 75 0
4.420175e-01 4.151243e-01 -1.183266e+01 161 114 24
4.420175e-01 4.151243e-01 -1.183266e+01 161 114 24
-4.039098e-01 8.009871e-01 -1.245131e+01 153 112 0
3.629550e-01 4.253752e-01 -1.189251e+01 154 107 7
2.596456e+00 -7.238721e-01 -1.026048e+01 164 126 15
-6.516051e-02 4.394319e-01 -1.177975e+01 164 123 0
-6.211193e-01 6.022033e-01 -1.192569e+01 185 141 6
-6.211193e-01 6.022033e-01 -1.192569e+01 185 141 6
-6.192179e-01 5.814400e-01 -1.186784e+01 213 168 40
-6.110171e-01 5.288769e-01 -1.176327e+01 182 139 9
-5.228018e-01 5.041144e-01 -1.181452e+01 200 157 27
-6.263105e-01 1.809541e-01 -9.489420e+00 27 37 3
-3.877912e-01 9.004319e-03 -8.991035e+00 36 47 16
-7.532556e-01 4.713091e-01 -1.159997e+01 153 114 0
-7.454826e-01 4.604489e-01 -1.156533e+01 229 195 77
-5.872456e-01 7.279134e-02 -9.642057e+00 38 44 17
1.563858e+00 -9.645846e-01 -9.324725e+00 190 174 91
-1.078127e+00 1.453887e-01 -1.081860e+01 239 212 93
-6.556916e-01 -4.494641e-01 -9.701697e+00 117 115 48
-2.578036e-01 7.933794e-01 -8.968136e+00 163 105 0
-3.932026e-01 8.057243e-01 -9.100642e+00 227 140 23
-3.949167e-01 8.055378e-01 -9.097965e+00 227 140 23
9.295334e-01 1.500344e+00 -1.199805e+01 69 74 42
-8.002821e-02 5.833943e-01 -8.927035e+00 41 50 7
4.366238e+00 -2.469011e-01 -1.126052e+01 69 59 0
8.172675e-01 8.454201e-01 -1.203961e+01 121 115 37
5.144458e-01 6.161608e-01 -1.180243e+01 182 165 58
-6.004952e-01 3.977096e-01 -9.209950e+00 6 15 0
4.788233e-01 5.595069e-01 -1.185403e+01 117 109 0
4.550389e-01 4.951084e-01 -1.191350e+01 145 95 1
9.035801e-01 3.088730e-01 -1.183059e+01 157 123 14
7.416136e-01 2.540669e-01 -1.168684e+01 181 139 19
2.411154e+00 -5.728684e-01 -1.047015e+01 208 170 59
-5.202623e-01 6.853526e-01 -1.211230e+01 199 160 29
1.769895e+00 -7.770991e-01 -9.830046e+00 198 166 55
1.075342e+00 1.593931e+00 -1.203059e+01 56 63 15
9.961351e-01 1.462197e+00 -1.197161e+01 4 4 0
-5.679832e-01 5.760957e-01 -9.207589e+00 168 91 0
7.143644e-01 8.662369e-01 -1.205654e+01 111 107 33
4.577839e-01 8.313188e-01 -1.220111e+01 118 104 29
5.735030e-01 6.776943e-01 -1.176007e+01 232 224 115
5.735030e-01 6.776943e-01 -1.176007e+01 232 224 115
5.300601e-01 6.852422e-01 -1.196505e+01 19 12 0
5.538337e-01 6.408519e-01 -1.178637e+01 89 75 0
-6.257658e-01 4.226289e-01 -9.265729e+00 16 26 0
3.869967e-01 6.204719e-01 -1.237736e+01 114 86 22
6.713099e-01 2.438876e-01 -1.165358e+01 171 128 0
-6.596898e-01 5.615514e-01 -1.181198e+01 165 120 0
-7.054746e-01 5.461106e-01 -1.177967e+01 214 174 43
-5.043906e-01 -1.361257e-01 -9.075544e+00 21 30 3
-1.338284e+00 9.369237e-02 -1.055774e+01 245 221 89
-5.275744e-01 -3.205735e-01 -9.039081e+00 176 180 116
2.419551e-01 -8.921976e-01 -9.149695e+00 214 209 118
-6.869087e-01 -4.317155e-01 -9.210557e+00 32 43 13
1.723701e+01 1.751532e+00 -1.759163e+01 167 163 96
-2.996927e-01 8.008319e-01 -8.990126e+00 149 74 0
9.817807e-01 1.566788e+00 -1.207392e+01 2 3 0
1.020928e+00 1.579826e+00 -1.213168e+01 2 3 0
9.393449e-01 1.569757e+00 -1.212431e+01 116 122 75
1.589476e-01 1.410119e+00 -1.201353e+01 61 68 25
9.350344e-01 1.006995e+00 -1.186222e+01 10 10 0
-5.314910e-01 5.477988e-01 -9.152379e+00 158 82 0
-5.415522e-01 4.321868e-01 -9.166367e+00 18 28 1
6.993831e-01 6.868384e-01 -1.185496e+01 82 71 0
7.222047e-01 4.780314e-01 -1.186022e+01 153 118 32
4.778590e-01 4.418678e-01 -1.180999e+01 133 84 0
1.312895e-01 5.703050e-01 -1.208628e+01 125 94 1
6.844629e-02 5.972197e-01 -1.216269e+01 121 87 0
-4.371026e-01 7.142489e-01 -1.218983e+01 158 121 6
2.450287e+00 -8.352088e-01 -9.953583e+00 189 159 45
2.019351e+00 -7.057092e-01 -1.004603e+01 213 177 65
-8.164222e-01 4.373973e-01 -1.154658e+01 220 186 54
-8.897069e-01 3.211357e-01 -1.124120e+01 154 120 6
-6.109951e-01 4.951168e-02 -9.632212e+00 60 68 29
-3.897811e-01 -1.017475e-01 -9.056774e+00 43 51 20
-7.224826e-01 -3.872940e-01 -9.816885e+00 199 196 101
4.639252e-01 1.699900e+00 -1.224425e+01 128 132 76
8.683229e-01 1.482347e+00 -1.201193e+01 3 1 11
8.572387e-01 1.409296e+00 -1.188516e+01 74 79 37
1.228026e-01 1.548247e+00 -1.200925e+01 128 131 81
1.228026e-01 1.548247e+00 -1.200925e+01 128 131 81
8.243638e-01 1.170928e+00 -1.185861e+01 24 27 0
-5.436056e-01 6.260162e-01 -9.220296e+00 171 90 0
4.128325e-01 8.722435e-01 -1.205302e+01 147 137 60
-6.225280e-01 3.796623e-01 -9.369777e+00 43 53 16
-5.048270e-01 2.803673e-01 -9.116736e+00 15 30 1
8.084954e-01 3.896335e-01 -1.196641e+01 114 76 0
8.568846e-01 3.107237e-01 -1.192354e+01 169 128 17
-6.026927e-01 3.282310e-01 -9.422170e+00 48 58 21
-8.187387e-02 6.424681e-01 -1.223651e+01 121 86 0
-2.998082e-01 6.772803e-01 -1.211893e+01 137 105 0
-4.770102e-02 5.449751e-01 -1.202433e+01 184 145 14
2.632465e+00 -8.195493e-01 -1.013381e+01 185 151 41
-1.027068e+00 2.515381e-01 -1.107131e+01 232 201 69
-6.370784e-01 -1.653934e-01 -9.700844e+00 63 73 30
2.084008e-01 -8.676427e-01 -9.222865e+00 204 199 108
9.114499e-01 1.366926e+00 -1.183101e+01 4 8 1
8.291471e-01 1.333339e+00 -1.193172e+01 0 2 0
8.382584e-01 1.338669e+00 -1.194133e+01 0 2 0
8.598194e-01 1.244669e+00 -1.184643e+01 75 81 37
-3.450570e-01 5.941459e-01 -9.052994e+00 61 34 7
-5.617954e-01 5.032514e-01 -9.180707e+00 35 26 0
5.654871e-01 7.008007e-01 -1.182064e+01 228 221 107
-5.371729e-01 3.226925e-01 -9.112196e+00 16 26 1
4.320876e-01 4.950572e-01 -1.204265e+01 85 53 5
7.538091e-01 3.161068e-01 -1.177721e+01 170 128 16
-8.281579e-02 5.477078e-01 -1.197724e+01 183 144 13
-6.267971e-01 6.231100e-02 -9.560018e+00 0 2 0
-5.848122e-01 -2.277117e-02 -1.068238e+01 236 235 142
-4.856551e-01 -1.594560e-01 -9.237834e+00 0 7 0
-5.363399e-01 -2.000459e-01 -9.083509e+00 10 21 0
-5.556797e-01 -2.536548e-01 -9.066658e+00 30 43 13
-5.862355e-01 5.194053e-01 -9.229610e+00 27 28 6
-4.860480e-01 3.589441e-01 -9.104231e+00 33 47 11
-5.748423e-01 4.000634e-01 -9.194636e+00 6 15 0
5.733973e-01 3.834671e-01 -1.176383e+01 152 105 17
1.507969e-01 2.960410e-01 -1.143336e+01 160 117 0
-5.247334e-02 3.622750e-01 -1.162747e+01 178 143 10
-2.875950e-01 4.371371e-01 -1.175679e+01 174 131 1
-7.240537e-01 1.680109e-01 -9.220680e+00 30 40 3
1.439779e+00 -9.316935e-01 -9.396384e+00 193 167 58
2.263101e-01 4.619806e-01 -1.191892e+01 182 145 15
-6.362549e-01 5.420345e-01 -1.178804e+01 183 140 10
1.864281e+00 -7.416995e-01 -1.004978e+01 202 166 54
-6.404591e-01 1.641971e-01 -1.098219e+01 241 241 151
-6.842620e-01 -3.145754e-02 -9.424677e+00 46 57 17
-5.550122e-01 -2.944555e-01 -9.350413e+00 0 7 0
-5.550122e-01 -2.944555e-01 -9.350413e+00 0 7 0
-6.000952e-01 -3.403605e-01 -9.460478e+00 37 48 16
-4.306167e-01 7.074777e-01 -9.110063e+00 215 128 0
4.848845e-01 6.556081e-01 -1.217519e+01 12 9 3
7.496451e-01 7.911216e-01 -1.201908e+01 135 129 45
2.967779e-01 9.538119e-01 -1.219543e+01 156 148 73
5.131030e-02 6.997906e-01 -1.233120e+01 87 73 21
9.845271e-01 1.526222e+00 -1.207896e+01 83 91 52
9.464101e-03 1.019259e+00 -1.220863e+01 34 47 2
4.913623e-01 5.573032e-01 -1.177142e+01 102 99 0
4.488877e-02 8.237569e-01 -1.268072e+01 19 20 3
1.577559e+01 2.321002e-01 -1.978906e+01 36 31 0
1.768679e+01 1.447808e-01 -1.948586e+01 20 26 0
5.275743e-02 1.072090e+00 -1.218241e+01 35 46 0
5.013855e-01 5.189134e-01 -1.179230e+01 143 109 12
2.362172e+00 -7.227388e-01 -1.020080e+01 212 172 69
9.352632e-01 2.544509e-01 -1.178107e+01 186 153 65
4.370703e-01 4.514731e-01 -1.198891e+01 117 68 2
2.328366e-01 2.237043e-01 -1.141925e+01 175 134 28
9.038766e+00 -3.790577e+00 -1.153274e+01 192 162 41
1.511698e-01 -1.928092e-01 -1.068794e+01 81 81 32
1.841804e-01 -6.575856e-01 -9.547576e+00 192 186 117
8.157833e-02 1.078367e+00 -1.217870e+01 55 54 1
5.046638e-01 4.185343e-01 -1.183808e+01 116 64 0
-2.573668e-01 4.045509e-01 -1.165887e+01 215 174 58
9.406911e-01 8.107487e-01 -1.205075e+01 123 112 46
3.830484e+00 -8.094994e-01 -9.890138e+00 158 153 95
6.006205e-01 4.852422e-02 -9.678509e+00 28 33 10
-3.882294e-01 8.233777e-01 -9.105606e+00 186 98 0
2.631317e-01 9.921813e-01 -1.215841e+01 116 106 44
3.502075e+00 -9.209079e-01 -9.631658e+00 168 157 103
3.130963e-01 1.752372e+00 -1.232445e+01 133 131 76
1.334883e-02 1.049956e+00 -1.222026e+01 50 56 20
3.578398e+00 -1.065656e+00 -9.889303e+00 82 52 0
1.432267e+00 -9.282260e-01 -9.398526e+00 201 166 61
-5.150687e-01 6.050169e-01 -9.114549e+00 171 88 0
3.921154e+01 1.540321e+01 -4.889569e+01 147 216 192
5.320214e-01 9.413027e-01 -1.210289e+01 141 139 62
2.178617e+01 4.841267e+00 -2.472923e+01 145 165 106
-3.255739e-01 8.133977e-01 -1.055561e+01 21 25 0
3.713384e+01 1.408125e+01 -4.448461e+01 120 168 117
1.556210e+01 7.325890e+00 -2.865341e+01 70 90 77
1.476763e+01 7.299282e+00 -2.842953e+01 15 37 24
1.727287e+01 1.841273e+00 -1.777168e+01 93 71 10
6.014898e+00 1.673787e+00 -1.638124e+01 130 115 39
5.425046e-01 6.109871e-01 -1.195360e+01 94 79 2
4.248727e-02 5.455408e-01 -1.208281e+01 168 129 12
-5.532571e-01 3.668573e-01 -9.146079e+00 13 23 0
5.169152e-01 4.955526e-01 -1.179033e+01 175 140 34
5.169152e-01 4.955526e-01 -1.179033e+01 175 140 34
5.605371e-01 4.272567e-01 -1.180355e+01 118 76 0
-6.493205e-01 -2.654256e-01 -9.645575e+00 45 57 19
3.505646e-01 6.934283e-01 -1.239004e+01 17 18 0
4.127653e-01 1.153266e+00 -1.178584e+01 36 41 9
-5.982433e-01 4.366363e-01 -9.332285e+00 21 32 1
1.715683e+01 1.944993e+00 -1.773221e+01 101 73 10
1.204863e+00 9.501166e-01 -1.175849e+01 12 14 0
-1.328182e+00 1.883197e-02 -1.044387e+01 232 205 72
-1.264175e+00 4.415263e-02 -1.053473e+01 239 213 80
-1.222775e+00 1.372780e-01 -1.073713e+01 231 203 72
1.703432e+01 3.389263e+00 -1.588610e+01 120 110 41
7.078348e-01 -2.499837e-02 -8.686102e+00 162 145 81
4.849611e-01 8.518524e-01 -1.217896e+01 158 139 71
3.373971e+00 -1.048556e+00 -9.640232e+00 29 15 0
5.911730e-01 4.456233e-01 -1.181852e+01 157 102 19
4.602931e-01 4.786257e-01 -1.185371e+01 159 100 6
1.439697e-01 7.311012e-01 -1.239319e+01 22 16 6
4.582160e-01 4.451350e-01 -1.190859e+01 129 78 0
4.587106e-01 4.451071e-01 -1.191295e+01 129 78 0
4.249586e-01 4.538147e-01 -1.203392e+01 123 78 2
-6.222848e-01 2.289144e-02 -9.530647e+00 17 24 0
4.289475e-01 5.577153e-01 -1.202613e+01 72 51 21
-6.126989e-01 1.384466e-03 -9.513072e+00 43 51 12
-5.582456e-01 -2.718980e-01 -9.370856e+00 9 18 2
-7.516918e-01 -1.788350e-01 -1.036725e+01 244 237 149
-6.902832e-01 -4.343321e-01 -9.464324e+00 33 32 7
7.794668e-02 9.852586e-01 -1.216758e+01 66 65 8
-6.058702e-01 -1.940604e-01 -9.604809e+00 32 43 5
-5.320019e-01 4.344275e-01 -1.163388e+01 254 240 139
-6.069868e-01 -2.121280e-01 -9.637085e+00 43 53 16
-7.705606e-01 2.783930e-01 -8.405392e+00 161 151 80
-4.448289e-02 -1.464197e-01 -1.082895e+01 248 236 146
9.224975e-01 8.514677e-01 -1.200231e+01 151 140 77
9.224975e-01 8.514677e-01 -1.200231e+01 151 140 77
5.944751e+00 1.635189e+00 -1.611152e+01 121 101 15
5.932409e+00 1.666386e+00 -1.619662e+01 155 134 53
5.855589e+00 1.303152e+00 -1.542467e+01 186 164 55
2.303781e+00 5.113779e-01 -1.268746e+01 140 122 19
3.541138e+00 -9.447529e-01 -9.638129e+00 160 158 102
8.830609e-01 8.318685e-01 -1.204341e+01 123 116 41
1.684881e+00 3.584867e-01 -1.225483e+01 188 156 47
1.125504e+00 3.306536e-01 -1.183092e+01 165 139 38
4.664676e-01 3.868518e-01 -1.185538e+01 129 79 0
2.035052e-01 2.392865e-01 -1.146176e+01 158 128 1
4.913408e-02 3.221307e-01 -1.158902e+01 205 169 31
-1.013486e+00 2.002786e-01 -1.095405e+01 238 220 99
-6.018769e-01 -4.269858e-01 -9.831452e+00 105 112 49
1.738797e+01 2.628107e-01 -1.959055e+01 35 31 2
1.797542e+01 -3.377111e-01 -2.005093e+01 40 21 0
5.988108e+00 1.535874e+00 -1.594451e+01 201 184 96
5.589227e+00 1.390578e+00 -1.554741e+01 187 170 89
5.724831e+00 1.217145e+00 -1.537323e+01 116 98 7
1.057930e+01 -1.892533e+00 -1.199790e+01 70 68 11
-3.723232e-01 8.309785e-01 -9.093667e+00 239 159 7
1.101565e+01 -3.409497e+00 -1.260125e+01 32 29 0
3.553073e+00 -1.186279e+00 -9.719729e+00 93 66 0
5.441317e-01 6.744448e-01 -1.177882e+01 234 231 115
1.266766e+00 3.808308e-01 -1.217237e+01 114 94 7
4.780803e-01 5.402024e-01 -1.182613e+01 134 114 0
4.023514e-01 5.858366e-01 -1.227771e+01 94 65 0
4.032881e-01 4.456762e-01 -1.198618e+01 139 95 5
4.248065e-01 3.940763e-01 -1.188220e+01 162 108 7
3.667828e-01 3.848303e-01 -1.187508e+01 168 121 5
-6.807248e-03 4.435437e-01 -1.199322e+01 190 148 14
-4.042347e-02 4.346810e-01 -1.182527e+01 167 125 1
-7.281892e-02 4.236448e-01 -1.180067e+01 202 160 26
-1.227593e-01 4.538350e-01 -1.183488e+01 189 149 15
-1.627493e-01 3.759245e-01 -1.168527e+01 212 175 43
-6.183432e-01 -2.227528e-01 -9.634888e+00 43 58 19
-1.517004e+00 1.408317e-01 -1.056399e+01 247 226 85
1.056045e+01 -3.021142e+00 -1.273433e+01 42 37 0
-9.263169e-03 5.187997e-01 -1.201303e+01 172 130 0
1.806910e+00 -1.004447e+00 -9.485431e+00 203 162 38
1.715442e+01 3.639084e-01 -1.931580e+01 156 157 97
1.102406e+01 -2.106170e+00 -1.212218e+01 56 58 8
-4.374237e-01 8.698704e-01 -9.153818e+00 223 148 1
1.094043e+01 -3.027634e+00 -1.286412e+01 143 134 76
4.152155e-01 3.642450e-01 -1.182416e+01 171 118 10
3.064594e-01 3.177862e-01 -1.170170e+01 169 122 4
-6.226022e-01 -5.394342e-05 -9.463478e+00 41 53 15
-5.885190e-01 -5.339769e-01 -9.619710e+00 115 113 54
1.301075e+00 1.085245e+00 -1.174107e+01 30 35 3
1.104239e+01 -2.567307e+00 -1.235294e+01 62 61 6
1.001116e+01 -2.786913e+00 -1.184545e+01 35 43 2
1.366937e+00 6.222152e-01 -1.199526e+01 195 176 77
5.821172e-01 6.774784e-01 -1.177882e+01 231 225 115
8.849652e-01 2.518394e-01 -1.181491e+01 172 135 15
-4.051574e-01 7.854937e-01 -9.087490e+00 179 100 0
-4.312861e-01 7.761370e-01 -9.108011e+00 227 145 9
3.487799e+00 -1.031917e+00 -9.706977e+00 126 110 34
-1.051286e+00 1.775957e-01 -1.089560e+01 189 167 38
-6.090142e-01 9.351602e-02 -9.508030e+00 50 63 20
-4.554769e-01 -2.028796e-02 -1.080274e+01 246 248 151
-2.675891e-01 7.745751e-02 -1.098922e+01 239 241 144
-5.837439e-01 -2.551148e-02 -1.068715e+01 233 237 142
-4.094046e-01 8.361068e-01 -9.124376e+00 184 100 5
-4.630962e-01 7.863237e-01 -9.138176e+00 217 136 1
6.186852e-02 2.206351e-01 -1.150176e+01 244 245 141
5.378372e-01 6.002574e-01 -1.189997e+01 127 110 5
5.666756e-01 5.465524e-01 -1.183352e+01 134 109 8
4.903667e-01 5.693415e-01 -1.185929e+01 119 103 0
-1.017002e+00 2.351672e-01 -1.097509e+01 243 230 106
5.669483e-01 6.319416e-01 -1.194372e+01 96 85 0
-6.614155e-01 -5.396849e-01 -9.148644e+00 44 56 8
3.670182e+00 -9.747021e-01 -9.607097e+00 122 124 86
5.041231e-01 5.855636e-01 -1.191647e+01 165 154 47
-1.843117e-01 4.825631e-01 -1.184371e+01 184 151 0
9.794363e-01 1.154073e+00 -1.178938e+01 30 31 0
1.792225e+01 -4.243774e-01 -1.976079e+01 92 91 35
-1.777919e+00 2.318934e-01 -8.835625e+00 255 252 157
1.623276e+01 -1.888790e-01 -1.754064e+01 165 159 83
1.671538e+01 4.449913e+00 -1.498615e+01 113 109 40
1.762214e+01 3.776655e+00 -1.662519e+01 145 128 59
5.561566e-01 4.225149e-01 -1.180467e+01 118 66 0
-6.840173e-01 -4.590071e-01 -9.580475e+00 101 96 41
1.702338e+01 3.529694e+00 -1.560188e+01 162 145 76
-1.614964e-01 5.227737e-01 -8.888348e+00 53 52 21
6.862529e-01 -8.088983e-01 -8.870655e+00 199 174 76
1.661716e+01 4.312104e+00 -1.483711e+01 153 148 82
1.665050e+01 4.122860e+00 -1.459639e+01 121 117 46
1.725966e+01 4.284793e+00 -1.547346e+01 154 141 73
1.628643e+01 1.229782e+00 -1.575848e+01 159 146 78
1.659877e+01 3.824510e+00 -1.482666e+01 161 154 84
-5.886687e-01 -2.278760e-01 -9.549656e+00 21 31 0
1.793061e+01 -3.717263e-01 -1.961520e+01 117 111 51
1.808015e+01 -4.355723e-01 -2.016586e+01 94 74 40
1.808015e+01 -4.355723e-01 -2.016586e+01 94 74 40
4.513722e+00 -2.347834e-01 -1.138567e+01 133 95 57
8.318232e-01 8.635746e-01 -1.201914e+01 146 140 66
1.719989e+01 3.305627e-01 -1.934773e+01 154 155 98
1.932312e+01 2.218201e-01 -2.295133e+01 67 66 1
1.784916e+01 9.495101e-01 -2.061397e+01 150 159 94
1.084476e+01 -2.039660e+00 -1.219806e+01 157 153 82
1.585072e+01 2.708245e-01 -1.962796e+01 40 24 0
1.153805e+01 -5.105903e+00 -9.591318e+00 55 53 15
2.974722e+00 4.752202e-01 -1.286994e+01 202 184 79
3.013960e+00 1.226436e-01 -1.224883e+01 181 149 20
2.632130e+00 4.477897e-01 -1.269945e+01 137 104 2
2.632130e+00 4.477897e-01 -1.269945e+01 137 104 2
1.284434e+00 1.099096e-01 -1.169253e+01 199 160 6
5.556984e-01 6.387059e-01 -1.187991e+01 193 184 67
5.484057e-01 6.193504e-01 -1.189070e+01 134 124 13
5.747650e-01 5.351034e-01 -1.178486e+01 159 140 36
4.772617e-01 5.686407e-01 -1.180998e+01 195 174 55
4.759924e-01 5.753716e-01 -1.183887e+01 119 103 0
3.622306e-01 7.830645e-01 -1.219229e+01 16 21 0
4.475425e-01 4.517953e-01 -1.189165e+01 130 80 0
4.475425e-01 4.517953e-01 -1.189165e+01 130 80 0
1.182731e-01 2.639897e-01 -1.143987e+01 249 231 107
-2.011353e-03 5.121133e-01 -1.193667e+01 178 147 2
-1.447056e-01 3.254254e-01 -1.155836e+01 249 243 118
-9.641856e-01 2.551624e-01 -1.105366e+01 245 233 121
1.072992e+01 -3.023133e+00 -9.883067e+00 46 53 1
1.157057e+01 -5.028711e+00 -9.603041e+00 52 50 3
1.164501e+01 -5.240337e+00 -9.776096e+00 109 109 63
-3.052973e-01 1.036787e+00 -9.295938e+00 186 122 0
1.157928e+01 -5.378130e+00 -9.850050e+00 111 113 63
1.164897e+01 -5.498681e+00 -9.824793e+00 38 41 0
-2.552929e-01 8.999461e-01 -9.109291e+00 253 177 13
2.577074e+00 5.239408e-01 -1.266688e+01 223 197 84
-4.680433e-01 8.582494e-01 -9.166987e+00 205 133 0
1.997010e+00 2.273664e-01 -1.197426e+01 170 142 0
1.970825e+00 8.536503e-02 -1.173267e+01 215 186 32
1.942846e+00 2.837054e-02 -1.176076e+01 227 198 44
1.322484e+00 5.500169e-01 -1.204484e+01 181 155 72
1.122316e+00 -1.908239e-02 -1.117312e+01 136 116 2
-2.322972e-02 4.609243e-01 -1.183395e+01 185 149 9
1.249006e+01 -2.650008e+00 -1.194821e+01 31 40 8
1.029118e+01 -2.179957e+00 -1.183126e+01 42 50 3
1.156909e+01 -5.610519e+00 -9.594038e+00 52 56 2
2.963382e+00 3.647597e-01 -1.266137e+01 113 87 0
2.730838e+00 4.297966e-01 -1.267093e+01 100 75 0
2.285264e+00 1.984291e-01 -1.199532e+01 141 115 5
2.075862e+00 4.401094e-01 -1.238042e+01 219 188 61
1.960808e+00 5.660095e-02 -1.175809e+01 184 155 1
1.386895e+00 4.367734e-01 -1.211903e+01 178 142 22
1.287365e+00 1.100411e-02 -1.130379e+01 195 164 8
1.075408e+00 -9.163348e-03 -1.120236e+01 146 122 5
2.800865e-01 4.045811e-01 -1.179986e+01 165 119 0
-5.610899e-01 3.657360e-01 -9.243664e+00 0 13 0
-5.956022e-01 3.796520e-01 -9.238533e+00 23 38 17
-5.064143e-01 -5.716618e-01 -9.511486e+00 71 73 16
9.740490e+00 -2.823095e+00 -1.027640e+01 24 29 6
9.740490e+00 -2.823095e+00 -1.027640e+01 24 29 6
2.697685e+00 2.808772e-01 -1.233261e+01 223 195 57
2.674767e+00 3.853342e-01 -1.264628e+01 221 189 67
1.102358e+00 9.793699e-01 -1.177779e+01 10 11 0
-5.163202e-01 8.515122e-01 -9.223946e+00 186 121 4
1.250392e+00 1.639738e-01 -1.166596e+01 197 153 4
1.120010e+00 1.093835e-01 -1.144208e+01 194 155 2
5.312994e-01 6.124386e-01 -1.183961e+01 191 180 55
7.501517e-01 2.473576e-01 -1.169442e+01 202 163 27
1.033681e-01 8.506113e-02 -1.109972e+01 242 244 137
9.932208e+00 -2.746134e+00 -1.018251e+01 13 18 0
-4.950786e-01 6.311281e-01 -9.084173e+00 166 95 4
-5.640079e-01 5.757434e-01 -9.218401e+00 158 94 0
4.765210e-01 3.485512e-01 -1.178931e+01 197 150 19
2.824392e-01 5.258903e-01 -1.205954e+01 138 111 0
2.756059e-01 1.834272e-01 -1.143454e+01 249 233 113
9.997884e+00 -2.745025e+00 -1.037955e+01 7 11 0
-3.261739e-01 8.714240e-01 -9.113846e+00 223 144 0
-4.102783e-01 7.881107e-01 -9.084069e+00 174 95 0
-5.748104e-01 5.339635e-01 -9.280508e+00 40 35 1
1.133599e+01 -4.571605e+00 -9.341040e+00 124 124 52
1.145489e+01 -9.578695e-01 -1.902619e+01 11 3 3
1.135706e+00 3.047893e-01 -1.193293e+01 144 115 0
-3.249125e-02 -4.900031e-02 -1.081172e+01 231 235 125
-7.608739e-01 -2.865653e-01 -1.003977e+01 216 219 114
5.859345e-01 3.817279e-01 -1.180469e+01 143 97 8
4.324218e-01 1.958386e-01 -1.145118e+01 186 146 0
-5.084663e-01 -3.754181e-01 -9.054993e+00 185 190 112
1.123102e+01 -1.992828e+00 -1.191892e+01 15 20 0
8.827675e-01 8.424301e-01 -1.199718e+01 137 124 39
8.827675e-01 8.424301e-01 -1.199718e+01 137 124 39
-4.951578e-01 7.293006e-01 -9.133548e+00 206 121 3
1.382082e+00 1.009481e+00 -1.169852e+01 178 177 125
2.545303e-01 5.973000e-01 -1.012761e+01 16 17 0
1.824712e+01 -2.548758e-01 -1.990555e+01 96 84 33
-5.614015e-01 3.726521e-01 -9.170397e+00 21 36 13
1.236194e+00 7.074100e-01 -1.180938e+01 89 89 27
6.006353e-01 7.362403e-01 -1.185057e+01 133 122 40
5.298872e-01 7.225791e-01 -1.189433e+01 140 129 47
1.857119e+00 4.438337e-01 -1.224796e+01 138 113 12
1.744679e+00 3.141215e-01 -1.195927e+01 191 168 68
6.393660e-01 5.557066e-01 -1.179043e+01 163 150 96
4.688568e-01 6.053628e-01 -1.180668e+01 199 181 74
4.578783e-01 5.578362e-01 -1.176759e+01 122 105 0
7.378679e-01 4.650348e-01 -1.181390e+01 88 66 19
3.962640e-01 4.688470e-01 -1.173947e+01 143 92 0
4.001925e-01 4.739811e-01 -1.198804e+01 94 56 2
5.977411e-01 3.642437e-01 -1.182084e+01 163 118 33
4.350870e-01 3.891477e-01 -1.182904e+01 118 66 1
2.550359e-01 4.227290e-01 -1.184345e+01 188 142 27
2.739988e-01 3.611297e-01 -1.161799e+01 176 127 10
1.016219e-01 3.049403e-01 -1.152124e+01 191 150 33
-5.898512e-01 -4.580635e-04 -9.588095e+00 56 63 47
-6.466371e-01 1.867717e-03 -9.544596e+00 27 40 10
-9.052437e-01 2.206387e-01 -1.111923e+01 222 208 113
-9.654399e-01 2.202531e-01 -1.100921e+01 254 251 166
1.724083e+00 -1.756502e+00 -1.043239e+01 12 25 1
-5.590988e-01 -4.737699e-01 -9.781574e+00 65 66 22
2.428177e-01 7.072996e-01 -1.007794e+01 161 156 95
2.506500e-01 6.863456e-01 -1.009404e+01 69 67 13
2.506500e-01 6.863456e-01 -1.009404e+01 69 67 13
-6.118165e-01 4.259577e-01 -9.307994e+00 28 43 16
3.146730e+00 -4.795765e-02 -1.196226e+01 129 106 8
5.613345e-01 6.098868e-01 -1.176642e+01 92 73 0
1.886357e+00 3.012672e-01 -1.202398e+01 117 97 5
1.287327e+00 4.699234e-01 -1.209753e+01 174 158 87
1.310984e+00 7.806763e-02 -1.142010e+01 200 168 47
-1.456649e-01 4.572236e-01 -1.179294e+01 185 144 26
-6.124637e-01 2.751159e-02 -9.544650e+00 81 91 64
-6.124637e-01 2.751159e-02 -9.544650e+00 81 91 64
-6.102654e-01 1.031346e-02 -9.552364e+00 8 18 1
-5.956459e-01 -1.339460e-02 -9.586627e+00 9 20 0
-5.185421e-01 8.466487e-01 -9.226433e+00 196 124 4
2.395026e-01 9.558820e-01 -9.770294e+00 206 140 4
9.453798e-01 1.549053e+00 -1.197882e+01 93 99 56
9.251569e-01 1.552329e+00 -1.207622e+01 93 94 63
7.936700e-01 1.432189e+00 -1.189213e+01 1 5 0
2.754747e-01 7.202271e-01 -1.010942e+01 62 58 0
-5.284031e-01 5.072639e-01 -9.133684e+00 128 78 7
5.274464e-01 6.973887e-01 -1.190808e+01 195 185 98
5.047902e-01 6.466365e-01 -1.172670e+01 98 82 0
4.988015e-01 6.569886e-01 -1.177443e+01 115 103 6
2.271404e+00 1.993442e-01 -1.198851e+01 119 99 4
2.147116e-01 5.239468e-01 -1.198677e+01 126 91 0
-6.277604e-01 5.842539e-03 -9.536207e+00 63 73 46
-6.079032e-01 -1.691827e-01 -9.661476e+00 28 43 12
-9.651080e-01 2.243154e-01 -1.110343e+01 207 184 64
-6.122140e-01 -1.811337e-01 -9.682080e+00 31 45 12
-4.040096e-01 -3.310700e-01 -1.015596e+01 197 195 118
-2.736477e-01 8.812514e-01 -9.108036e+00 220 146 0
9.733008e-01 1.465715e+00 -1.195439e+01 14 11 0
8.003387e-01 1.381255e+00 -1.181535e+01 72 75 43
-5.495244e-01 6.127513e-01 -9.323194e+00 130 46 1
4.309141e+00 3.629980e-01 -1.324471e+01 177 164 85
2.908295e+00 2.139365e-02 -1.190869e+01 114 91 2
2.695462e+00 7.979449e-02 -1.193147e+01 119 100 7
-5.956414e-01 3.170369e-01 -9.454258e+00 10 26 0
-5.894656e-01 1.446169e-02 -9.599870e+00 0 5 0
-5.069872e-01 -3.259558e-01 -9.065168e+00 209 212 162
-4.503627e-01 7.469826e-01 -9.103280e+00 205 122 0
-4.648776e-01 7.201949e-01 -9.099336e+00 222 140 5
-4.957597e-01 6.682267e-01 -9.423741e+00 193 110 0
-5.411903e-01 5.212384e-01 -9.156309e+00 172 112 21
-2.306548e-01 2.503777e-01 -8.989526e+00 7 18 1
-6.045099e-01 4.118432e-01 -9.365077e+00 24 40 11
5.387656e-01 6.779629e-01 -1.173808e+01 222 212 101
-5.877047e-01 3.659567e-01 -9.435161e+00 9 25 0
5.015355e-01 6.129663e-01 -1.181717e+01 189 170 57
1.178251e+00 4.709235e-01 -1.206803e+01 29 24 4
6.441736e-01 4.721541e-01 -1.179441e+01 166 135 45
-1.747617e-01 4.395991e-01 -1.179718e+01 211 172 53
-6.130405e-01 -2.015598e-01 -9.630193e+00 35 50 18
8.723278e-01 1.414322e+00 -1.191332e+01 72 76 25
-5.548555e-01 5.463536e-01 -9.211732e+00 170 106 8
-5.766279e-01 4.454573e-01 -9.340533e+00 14 30 3
-5.793937e-01 4.327503e-01 -9.375829e+00 36 49 21
-3.891810e-01 2.709729e-01 -1.141458e+01 239 238 159
-6.300733e-01 -1.784500e-01 -9.502552e+00 25 42 10
-5.920801e-01 -2.639318e-01 -9.521459e+00 26 42 15
-5.558899e-01 6.252102e-01 -9.362095e+00 177 101 3
-5.700507e-01 5.943065e-01 -9.293124e+00 165 92 0
-4.752353e-01 5.934767e-01 -9.496266e+00 56 64 27
-4.938995e-01 5.555091e-01 -9.471629e+00 30 41 9
-5.346475e-01 5.191395e-01 -9.385258e+00 0 6 1
-6.457073e-01 3.720570e-01 -9.253313e+00 14 24 0
2.262503e+00 6.193989e-02 -1.178523e+01 208 177 60
1.010158e+00 2.299090e-02 -1.117900e+01 154 122 4
-2.803143e-02 -4.412011e-02 -1.079171e+01 229 232 143
-6.672734e-02 -7.615576e-02 -1.059317e+01 235 235 147
-5.139415e-01 -1.321685e-01 -9.936204e+00 59 77 39
-6.101482e-01 -1.681751e-01 -9.716008e+00 46 59 29
-5.065851e-01 7.515819e-01 -9.340660e+00 178 97 0
-5.079246e-01 7.038544e-01 -9.353477e+00 212 126 1
8.392060e-01 1.328402e+00 -1.178763e+01 6 6 3
-5.342857e-01 5.236986e-01 -9.435403e+00 41 54 24
8.740433e-01 8.630733e-01 -1.194502e+01 152 137 69
8.740433e-01 8.630733e-01 -1.194502e+01 152 137 69
6.735651e-01 3.701748e-01 -1.186043e+01 120 78 0
-1.177576e-01 3.632618e-01 -1.155917e+01 180 144 30
-6.163119e-01 8.210805e-02 -9.574196e+00 1 8 0
-5.792451e-01 -8.311769e-02 -9.670954e+00 38 51 21
-7.090386e-01 -5.252056e-01 -9.177313e+00 25 42 6
-4.416793e-01 7.915722e-01 -9.145901e+00 225 143 0
-5.332842e-01 5.675214e-01 -9.357418e+00 1 0 0
-5.745784e-01 4.479785e-01 -9.420847e+00 6 17 1
-5.860466e-01 3.739929e-01 -9.456848e+00 10 22 0
4.941314e-01 6.988904e-01 -1.178526e+01 237 226 117
-6.029210e-01 3.281134e-01 -9.415486e+00 34 51 17
1.166640e+00 1.116481e+00 -1.161565e+01 32 31 0
-4.947614e-01 7.632352e-01 -9.231584e+00 174 101 0
1.291026e+00 2.678583e-02 -1.138539e+01 195 165 37
1.243357e+00 -1.898034e-01 -1.090308e+01 231 234 129
1.636429e+01 4.508510e-01 -1.943421e+01 31 23 2
1.709491e+01 2.816465e-01 -1.942866e+01 32 27 7
1.968050e+00 -1.469027e-02 -1.153428e+01 208 180 45
2.053628e+00 -1.320214e+00 -8.911360e+00 188 167 78
-6.034105e-01 7.840121e-02 -9.564691e+00 10 23 4
-3.684324e-01 7.173890e-01 -9.541685e+00 207 132 4
1.569431e+01 2.784434e-01 -1.953953e+01 38 27 6
1.684958e+01 -1.635681e+00 -1.864033e+01 124 122 60
1.605440e+01 -1.164384e+00 -1.948778e+01 33 13 2
3.122786e+00 1.536181e-01 -1.222349e+01 187 152 24
3.019784e+00 1.502568e-01 -1.224086e+01 125 91 3
1.145891e-01 2.808332e-01 -1.144720e+01 163 136 7
-6.243885e-01 -3.370834e-01 -9.791424e+00 61 75 23
9.571718e+00 -2.501410e+00 -1.011306e+01 57 64 30
3.160573e+00 3.081896e-01 -1.262126e+01 97 65 0
2.530311e+00 1.690130e-01 -1.195641e+01 216 187 50
2.146823e+00 3.390773e-01 -1.234604e+01 219 189 60
3.893018e+00 -4.907211e+00 -9.413605e+00 212 214 107
1.874238e+01 -8.163177e-01 -2.039014e+01 53 46 1
1.770236e+01 -1.121507e+00 -1.997101e+01 23 18 0
9.767245e+00 -2.713340e+00 -1.050144e+01 15 19 3
8.781761e-01 5.182174e-02 -1.123547e+01 198 176 34
7.510542e-01 1.162521e-01 -1.135185e+01 218 192 53
1.250394e+01 -3.279151e+00 -1.195847e+01 30 38 1
1.292630e+01 -3.982656e-02 -1.997870e+01 78 71 0
1.836884e-01 2.976326e-01 -1.149140e+01 165 126 0
4.501406e+00 -3.068455e-01 -1.172691e+01 98 84 4
4.394196e+00 -2.725740e-01 -1.173470e+01 196 178 78
-2.257889e-01 8.960388e-01 -9.123476e+00 235 157 0
3.850621e+00 -1.724952e-01 -1.177697e+01 165 145 29
-3.246745e-01 1.031735e+00 -9.280268e+00 223 156 8
-3.508143e-01 1.009019e+00 -9.283471e+00 202 136 0
3.548766e+00 1.315263e-02 -1.215733e+01 140 112 5
3.430922e+00 6.599444e-02 -1.225100e+01 186 157 48
3.108349e+00 -2.015137e-02 -1.186638e+01 136 109 0
3.103015e+00 2.473537e-02 -1.196148e+01 186 168 53
2.162132e+00 -1.642910e+00 -8.370083e+00 193 163 56
2.803160e+00 -1.242286e-01 -1.167688e+01 222 184 46
2.917838e+00 -4.993318e-02 -1.198432e+01 186 152 29
2.804814e+00 4.615355e-01 -1.264955e+01 205 195 98
2.581659e+00 2.793567e-01 -1.228538e+01 126 103 0
-5.072188e-01 8.646725e-01 -9.221083e+00 185 116 4
2.402353e+00 2.724929e-01 -1.237715e+01 200 174 51
2.113990e+00 2.837898e-01 -1.200864e+01 219 197 77
1.964495e+00 3.200774e-01 -1.206586e+01 211 185 65
1.242307e-02 6.848072e-01 -9.902270e+00 55 50 7
1.440005e+00 -1.055686e-01 -1.099734e+01 243 227 113
1.101736e+00 -2.983667e-02 -1.117375e+01 237 226 118
1.068558e+00 -3.924796e-03 -1.117845e+01 143 125 11
1.249661e+00 4.074065e-01 -1.217759e+01 97 87 23
1.046119e+00 -1.148186e-02 -1.116714e+01 244 233 126
1.037547e+00 -2.090667e-02 -1.119930e+01 237 225 109
6.297741e-01 5.773019e-01 -1.176762e+01 209 189 101
6.163349e-01 5.632983e-01 -1.174538e+01 90 66 1
4.980989e-01 4.204311e-01 -1.182135e+01 126 77 3
4.259847e-01 3.856294e-01 -1.179271e+01 162 114 6
3.615039e-02 3.160487e-01 -1.143533e+01 213 197 86
-5.372723e-03 3.111644e-01 -1.150106e+01 208 190 81
-6.218004e-01 1.406606e-02 -9.545977e+00 73 87 51
-6.250957e-01 2.867966e-02 -9.606212e+00 35 44 16
-5.306938e-01 -1.118389e-01 -9.898874e+00 55 69 34
-3.492401e-01 -2.829235e-01 -1.015792e+01 128 133 74
4.461195e+00 -2.813643e-01 -1.181366e+01 138 117 3
-2.458961e-01 1.059769e+00 -9.352259e+00 179 111 0
4.088516e+00 -1.323843e-01 -1.208510e+01 117 93 0
4.088516e+00 -1.323843e-01 -1.208510e+01 117 93 0
3.784666e+00 -2.725561e-01 -1.175892e+01 196 171 54
3.631133e+00 -1.024650e-02 -1.214321e+01 122 93 0
-3.398231e-01 9.923260e-01 -9.293535e+00 220 154 16
-1.231568e-01 9.592813e-01 -9.519296e+00 181 109 1
3.361800e+00 4.131917e-02 -1.202022e+01 214 187 74
3.735276e+00 -4.889395e-01 -1.170084e+01 213 183 49
-3.613874e-01 8.276908e-01 -9.079427e+00 230 150 2
3.211427e+00 1.028015e-01 -1.219327e+01 109 82 2
3.077974e+00 4.677446e-03 -1.198223e+01 208 181 64
2.851319e+00 1.940635e-01 -1.230107e+01 126 100 0
2.136932e+00 1.901455e-01 -1.197130e+01 170 146 27
2.009722e+00 -1.836819e-01 -1.126119e+01 192 163 25
1.932137e+00 -1.682070e-01 -1.124128e+01 207 178 37
1.270389e+00 -5.607409e-02 -1.114533e+01 200 186 63
1.246483e+00 -7.232240e-02 -1.114203e+01 254 243 131
1.584951e+00 2.837644e-01 -1.224689e+01 178 139 20
1.127893e+00 -2.622892e-02 -1.114096e+01 249 233 118
1.313433e+00 2.552107e-01 -1.202897e+01 170 140 29
1.033059e+00 5.173602e-01 -1.201053e+01 18 6 0
9.012781e-01 -1.323341e-01 -1.079271e+01 95 103 36
9.073933e-01 -1.229182e-01 -1.086453e+01 202 206 117
7.508015e-01 1.942242e-01 -1.158126e+01 202 171 55
5.368370e-01 5.249329e-01 -1.172147e+01 142 118 10
3.333104e-01 3.935008e-01 -1.176679e+01 164 120 0
-5.987309e-01 -3.545427e-03 -9.603479e+00 7 15 0
-4.429069e-01 -3.772364e-01 -1.007719e+01 133 136 80
-6.554323e-01 -5.986300e-01 -9.206776e+00 38 49 17
1.683671e-01 8.971152e-01 -9.196606e+00 246 180 0
4.051296e+00 -7.846133e-02 -1.204132e+01 207 185 74
4.136258e+00 -1.747760e-01 -1.198088e+01 201 179 68
4.055507e+00 -2.492605e-01 -1.179430e+01 204 182 72
4.098684e+00 -3.773609e-01 -1.177891e+01 202 170 44
3.985685e+00 -1.399322e-01 -1.206520e+01 213 187 79
-2.830930e-01 9.108428e-01 -9.175911e+00 255 176 8
3.328328e+00 -4.653745e-02 -1.185031e+01 207 180 65
-3.424009e-01 7.955093e-01 -9.038144e+00 198 120 7
2.987123e+00 -1.565149e-01 -1.174480e+01 195 158 25
2.060354e+00 2.641013e-01 -1.200936e+01 133 109 7
1.761460e+00 -1.162566e-01 -1.115007e+01 166 134 0
1.329911e+00 7.185363e-01 -1.190702e+01 218 196 105
1.860112e-01 5.432873e-01 -1.015711e+01 224 224 152
9.905501e-01 -1.475108e-01 -1.082008e+01 94 101 16
-6.193954e-01 8.531512e-03 -9.528318e+00 15 29 0
-1.445842e-01 9.235577e-01 -9.089648e+00 166 94 0
-1.445842e-01 9.235577e-01 -9.089648e+00 166 94 0
-2.282273e-01 8.533862e-01 -8.983997e+00 196 124 0
4.098963e+00 -3.009435e-01 -1.167593e+01 123 99 0
3.919411e+00 7.502444e-02 -1.230906e+01 209 188 72
-2.480049e-01 1.024701e+00 -9.397709e+00 194 125 10
3.143668e+00 4.331895e-03 -1.190940e+01 209 179 60
2.311592e-01 8.298811e-01 -9.962368e+00 224 191 54
2.629831e+00 4.164359e-01 -1.243759e+01 226 192 89
2.661564e+00 2.198348e-02 -1.188519e+01 202 170 47
2.694867e+00 4.414169e-01 -1.264234e+01 103 82 0
2.497452e+00 2.490055e-01 -1.226521e+01 221 199 78
2.288469e+00 2.427449e-01 -1.199610e+01 215 194 71
2.241473e+00 4.019661e-01 -1.236256e+01 222 191 75
1.962148e+00 -8.459369e-02 -1.132120e+01 211 184 45
-5.324356e-01 6.888128e-01 -9.322341e+00 193 111 8
9.332773e-01 1.452527e-01 -1.121553e+01 198 162 16
1.179045e+00 3.881521e-01 -1.210509e+01 125 100 3
9.870566e-01 2.682357e-01 -1.173088e+01 205 174 58
-5.576142e-01 4.479135e-01 -9.389977e+00 3 19 0
6.101191e-01 4.782351e-01 -1.174842e+01 180 145 48
7.753871e-01 2.669171e-01 -1.183616e+01 184 146 29
6.944533e-01 2.709812e-01 -1.178215e+01 193 154 32
3.909012e-01 3.717205e-01 -1.178755e+01 177 132 5
-1.129070e-01 3.470080e-01 -1.152297e+01 191 155 32
-2.630742e-01 -2.194626e-01 -1.033570e+01 212 213 120
-9.610443e-02 3.132476e-01 -1.169856e+01 223 200 76
-6.310975e-01 -5.903209e-01 -9.137373e+00 144 151 100
4.376424e+00 -3.016152e-01 -1.171366e+01 185 171 56
-2.725454e-01 8.867699e-01 -9.109671e+00 217 135 0
3.628340e+00 -1.916755e-01 -1.184540e+01 129 101 0
3.628340e+00 -1.916755e-01 -1.184540e+01 129 101 0
3.592830e+00 -2.486215e-01 -1.181158e+01 209 179 49
3.412087e+00 -1.413933e-01 -1.189536e+01 121 98 0
3.412087e+00 -1.413933e-01 -1.189536e+01 121 98 0
3.111000e+00 -4.538007e-02 -1.186808e+01 130 100 0
3.111000e+00 -4.538007e-02 -1.186808e+01 130 100 0
2.922591e+00 2.155601e-03 -1.191674e+01 123 95 0
-4.748528e-01 8.997147e-01 -9.264143e+00 196 127 1
2.510995e+00 1.206191e-01 -1.198801e+01 124 101 0
2.510995e+00 1.206191e-01 -1.198801e+01 124 101 0
2.312211e+00 1.993177e-01 -1.250584e+01 189 157 37
1.325691e+00 6.069214e-01 -1.198612e+01 183 158 53
1.131966e+00 1.041936e-01 -1.116670e+01 208 177 38
-5.470498e-01 6.837144e-01 -9.367963e+00 180 108 4
1.266255e+00 -5.635059e-02 -1.117727e+01 205 186 60
-5.367094e-01 4.848107e-01 -9.150072e+00 42 27 0
-5.941815e-01 6.413706e-01 -9.361528e+00 54 30 0
-5.790093e-01 6.112882e-01 -9.343303e+00 154 98 16
-5.772300e-01 5.921193e-01 -9.324076e+00 49 16 0
8.584557e-01 3.588435e-01 -1.148356e+01 204 169 53
9.959891e-01 3.045461e-01 -1.169545e+01 211 184 67
7.243708e-01 2.634224e-01 -1.158201e+01 199 166 54
5.724722e-01 2.798958e-01 -1.153179e+01 186 153 28
5.724722e-01 2.798958e-01 -1.153179e+01 186 153 28
5.219046e-01 2.447837e-01 -1.152003e+01 210 174 46
4.472655e-01 4.616950e-01 -1.177623e+01 129 81 0
-6.003332e-01 -3.157007e-02 -9.595321e+00 17 25 1
-5.978843e-01 -8.876454e-02 -9.586879e+00 44 56 20
-5.135316e-01 -1.060756e-01 -9.921342e+00 55 69 33
-5.537201e-01 -5.976574e-01 -9.400778e+00 29 34 2
-5.635963e-02 1.022260e+00 -9.518998e+00 232 161 9
3.979306e+00 -2.918606e-01 -1.179946e+01 128 101 1
3.167779e+00 -1.331811e-01 -1.183625e+01 211 181 50
2.707937e+00 6.126490e-02 -1.194280e+01 124 96 0
2.153633e+00 1.611860e-01 -1.189440e+01 215 189 63
2.105997e+00 7.391797e-03 -1.168598e+01 219 190 54
1.535739e+00 4.043605e-02 -1.142590e+01 216 188 52
-4.752419e-01 7.088130e-01 -9.452078e+00 192 119 0
-5.562885e-01 4.302932e-01 -9.187326e+00 18 28 1
8.046518e-01 2.873976e-01 -1.171060e+01 190 156 47
-5.952700e-01 3.215274e-01 -9.547648e+00 35 49 13
-2.003800e-01 9.245147e-01 -9.197335e+00 255 180 3
8.943153e-02 9.680935e-01 -9.709446e+00 205 126 3
-3.589773e-01 9.956094e-01 -9.266634e+00 226 160 4
3.364195e+00 -1.613531e-02 -1.190247e+01 206 179 64
-3.714123e-01 8.763997e-01 -9.136003e+00 249 172 2
3.339760e+00 -5.024408e-02 -1.215011e+01 178 159 46
2.542078e+00 2.001208e-01 -1.205392e+01 213 192 65
2.542078e+00 2.001208e-01 -1.205392e+01 213 192 65
1.015059e+00 2.657647e-01 -1.185573e+01 210 178 69
-6.037084e-01 4.858240e-01 -9.295371e+00 26 40 9
-5.738412e-01 4.239985e-01 -9.344115e+00 2 17 0
5.566117e-01 2.362923e-01 -1.146708e+01 213 181 60
-3.745882e-02 -2.915121e-02 -1.060072e+01 235 236 143
-6.067858e-01 5.963611e-02 -9.584712e+00 1 9 0
-1.070267e-02 7.528347e-01 -9.884670e+00 36 24 9
-4.952284e-01 7.507557e-01 -9.357210e+00 182 109 0
1.894310e-01 3.562142e-01 -1.019617e+01 231 235 141
-4.776013e-01 6.464128e-01 -9.521076e+00 41 46 6
1.072479e+00 2.335785e-02 -1.119586e+01 177 146 29
-5.563801e-01 5.296635e-01 -9.431617e+00 35 51 12
-3.564143e-01 8.352195e-01 -9.071750e+00 237 155 0
-4.568304e-01 7.915219e-01 -9.130657e+00 214 133 0
2.523756e+00 -2.214189e-02 -1.196759e+01 218 190 62
1.342370e+00 4.253283e-01 -1.210769e+01 183 151 38
-5.315550e-01 5.938841e-01 -9.423220e+00 30 34 5
4.542210e-01 2.700111e-01 -1.119876e+01 213 183 69
1.057916e+00 4.925580e-02 -1.118702e+01 169 132 18
-1.474968e-01 -6.405304e-02 -1.059581e+01 226 223 130
-1.150550e-01 -2.439413e-01 -1.035478e+01 212 212 119
-5.375826e-01 7.912568e-01 -9.226027e+00 159 96 0
-5.007122e-01 6.782482e-01 -9.410605e+00 206 126 4
9.739434e-01 2.299839e-01 -1.172941e+01 215 184 68
1.716376e+01 3.356266e+00 -1.580145e+01 160 143 89
1.786238e+00 2.443285e-01 -1.197261e+01 198 168 54
1.169794e+00 2.753610e-01 -1.174434e+01 170 138 28
-1.566778e+00 6.958560e-01 -9.895697e+00 10 5 1
1.048756e+00 3.616736e-02 -1.112028e+01 195 165 41
1.700807e+01 3.638247e+00 -1.590422e+01 157 148 89
1.748621e+01 3.102077e+00 -1.703162e+01 149 141 78
-2.474471e-01 3.907063e-01 -8.847819e+00 155 158 103
1.855801e+01 2.455583e+00 -1.893276e+01 90 80 16
1.609838e+01 3.998758e+00 -1.474251e+01 156 153 82
2.759694e+00 -1.817603e-02 -1.179412e+01 184 157 42
1.536083e+00 -1.726934e-01 -1.097961e+01 238 225 107
-5.279344e-01 -3.507407e-01 -9.938913e+00 56 64 24
-3.187794e-01 -6.593422e-01 -9.460269e+00 49 55 20
