ply
format ascii 1.0
element face 0
property list uchar int vertex_indices
element vertex 703
property float x
property float y
property float z
property uchar diffuse_red
property uchar diffuse_green
property uchar diffuse_blue
end_header
-3.084959e-01 1.061354e+00 -8.234600e+00 191 128 0
-4.247816e-01 1.018419e+00 -8.238788e+00 168 104 10
-4.252771e-01 9.482697e-01 -8.221932e+00 134 88 0
-4.424755e-01 9.224835e-01 -8.241841e+00 123 77 0
-5.438399e-01 5.326554e-01 -8.390299e+00 82 52 0
-2.316852e+00 7.048555e-01 -1.258486e+01 193 171 30
2.698557e+00 7.717883e-02 -1.265601e+01 206 181 60
-2.418819e+00 -2.350549e-01 -1.066242e+01 207 187 57
-2.418819e+00 -2.350549e-01 -1.066242e+01 207 187 57
1.742102e+00 -3.642081e-01 -1.153101e+01 226 213 110
1.944819e+00 -3.959862e-01 -1.150307e+01 201 189 70
-2.199525e+00 -3.514456e-01 -1.051321e+01 233 214 83
-2.062385e+00 -4.294571e-01 -1.044239e+01 218 210 83
-2.323087e+00 -4.781333e-01 -1.023576e+01 238 210 84
1.543445e+00 -5.601811e-01 -1.104427e+01 219 225 139
8.138333e-01 -5.816743e-01 -9.684200e+00 28 36 20
8.138333e-01 -5.816743e-01 -9.684200e+00 28 36 20
-3.686544e-02 9.879103e-01 -8.248814e+00 64 73 17
-6.641838e-01 8.387768e-01 -8.417050e+00 166 101 0
-5.164701e-01 8.051735e-01 -8.324939e+00 72 44 0
-5.807986e-01 6.346169e-01 -8.354629e+00 110 66 0
-2.457876e+00 7.532663e-01 -1.268628e+01 209 199 79
-2.312378e+00 7.346486e-01 -1.251817e+01 238 219 87
-5.381224e-01 4.735330e-01 -8.424753e+00 56 37 0
-2.309904e+00 5.908808e-01 -1.237218e+01 233 216 66
-5.441158e-01 2.705609e-01 -8.459736e+00 38 43 9
2.812151e+00 1.768049e-01 -1.294050e+01 194 175 54
-1.978291e+00 1.732057e-01 -1.161714e+01 205 186 47
1.738815e+00 -3.315704e-01 -1.153932e+01 80 61 0
1.983529e+00 -3.798858e-01 -1.150041e+01 229 210 89
1.504842e+00 -6.021335e-01 -1.097007e+01 208 214 133
9.348845e-01 -5.001741e-01 -9.720182e+00 7 25 1
1.008283e+00 -9.573053e-01 -1.022117e+01 141 152 76
9.328986e-01 -1.211586e+00 -9.780583e+00 181 191 94
-1.114568e+00 -1.111010e+00 -8.630558e+00 214 221 141
2.314658e+00 1.972283e+00 -1.284384e+01 118 129 71
-2.655823e-01 9.798712e-01 -8.211889e+00 80 51 0
9.807578e-03 9.516387e-01 -8.237975e+00 27 43 0
-4.071263e-01 9.149392e-01 -8.239797e+00 80 52 0
-4.720006e-01 8.732383e-01 -8.270777e+00 73 46 0
-5.595457e-01 6.753972e-01 -8.333235e+00 92 47 0
-5.491006e-01 5.913394e-01 -8.365394e+00 90 50 0
-5.364485e-01 5.833641e-01 -8.420034e+00 112 80 23
-5.224503e-01 5.568314e-01 -8.426493e+00 58 30 0
-5.922646e-01 4.409689e-01 -8.387675e+00 88 63 12
-7.802950e-01 4.356225e-01 -8.428123e+00 36 40 4
2.807099e+00 1.632048e-01 -1.277079e+01 120 102 3
2.873948e+00 4.481367e-02 -1.271529e+01 192 169 50
-1.907266e+00 -9.683246e-02 -1.111619e+01 226 211 69
-2.215189e+00 -3.222227e-01 -1.055149e+01 160 141 10
-2.218557e+00 -3.238284e-01 -1.056122e+01 160 141 10
1.514103e+00 -5.375075e-01 -1.102631e+01 89 95 19
8.155101e-01 -4.632070e-01 -9.835741e+00 225 237 173
1.445962e+00 -6.346019e-01 -1.086750e+01 225 231 152
1.048991e+00 -9.441203e-01 -1.019280e+01 173 183 99
-1.142752e+00 -1.075529e+00 -8.733418e+00 63 72 6
-3.138421e-01 9.963017e-01 -8.199560e+00 136 89 0
-2.387447e-01 9.584119e-01 -8.219633e+00 67 60 13
-4.706897e-01 8.193704e-01 -8.286390e+00 59 50 3
-5.621648e-01 7.492996e-01 -8.287312e+00 117 73 9
-2.327228e+00 6.483590e-01 -1.239655e+01 206 185 42
-7.014609e-01 4.299713e-01 -8.396744e+00 31 20 0
-2.708057e+00 2.486879e-01 -1.155864e+01 228 206 69
-2.583536e+00 2.141923e-01 -1.152997e+01 222 196 57
-1.567552e-01 1.643253e-01 -8.252453e+00 29 40 1
8.803458e-01 -1.134214e+00 -9.772424e+00 162 173 81
-1.045423e+00 -9.338533e-01 -8.655018e+00 40 58 10
1.040024e+00 -1.213862e+00 -9.731722e+00 201 208 105
-3.875590e-01 1.004164e+00 -8.228785e+00 218 164 26
1.343327e-02 8.908322e-01 -8.255149e+00 23 40 4
-6.002491e-01 7.593029e-01 -8.272669e+00 119 66 0
-6.219283e-01 6.871433e-01 -8.306328e+00 124 71 1
-5.065138e-01 6.168116e-01 -8.395218e+00 52 26 0
-5.871538e-01 6.043245e-01 -8.342945e+00 132 88 9
-4.700530e-01 5.794179e-01 -8.379838e+00 73 65 3
-6.240257e-01 4.111499e-01 -8.375938e+00 14 13 0
3.376874e+00 5.120257e-01 -1.376375e+01 121 110 23
-6.217738e-01 3.612268e-01 -8.405787e+00 10 24 2
-4.939156e-01 -5.590210e-02 -8.210492e+00 15 28 0
2.179768e+00 -4.592339e-01 -1.143806e+01 215 202 76
7.025083e-01 -3.228581e-01 -1.001292e+01 63 68 1
-7.263994e-01 -4.699475e-01 -8.355944e+00 16 36 2
-8.907338e-01 -7.032780e-01 -8.434950e+00 25 48 6
8.268629e-01 -1.160251e+00 -9.620584e+00 166 175 82
9.555176e-01 -1.202559e+00 -9.601983e+00 202 208 110
5.908933e-01 -1.259012e+00 -9.373197e+00 162 172 83
7.690810e-01 -1.367743e+00 -9.270498e+00 181 189 93
2.084480e-02 1.023273e+00 -8.266548e+00 35 12 10
-2.795167e+00 -1.380492e-01 -1.078276e+01 247 223 91
2.112836e+00 -2.947253e-01 -1.176933e+01 226 206 78
-3.874974e-01 -1.281760e-01 -8.284177e+00 20 37 1
-2.432189e+00 -6.332264e-01 -9.992847e+00 237 217 86
-7.076311e-01 -3.379913e-01 -8.295133e+00 15 32 0
-6.564731e-01 -3.584851e-01 -8.366288e+00 15 31 2
7.412653e-01 -6.054375e-01 -9.628365e+00 3 4 7
1.278091e-01 8.904509e-01 -8.459696e+00 67 67 4
-4.460160e-01 7.092561e-01 -8.338492e+00 64 60 5
-4.670675e-01 4.896187e-01 -8.379869e+00 71 68 7
-4.676904e-01 4.859725e-01 -8.371249e+00 71 68 7
-4.682393e-01 4.868870e-01 -8.372255e+00 71 68 7
-6.349281e-01 4.634353e-01 -8.378982e+00 143 100 7
3.748990e-01 4.297630e-01 -8.807231e+00 63 64 0
-2.067144e+00 -3.870411e-01 -1.048755e+01 230 213 83
-2.296208e+00 -3.819945e-01 -1.037823e+01 188 163 34
-2.295871e+00 -3.825682e-01 -1.037866e+01 188 163 34
2.412598e+00 -5.030674e-01 -1.141708e+01 184 153 30
3.318685e-01 -9.190246e-01 -9.341203e+00 76 82 12
-1.949149e+00 -1.033353e+00 -9.118927e+00 235 236 142
6.716650e-01 -1.178062e+00 -9.631168e+00 127 135 60
-5.224280e-01 6.938416e-01 -8.351222e+00 57 25 0
2.937213e+00 -1.018539e-01 -1.242756e+01 210 186 59
-1.829789e+00 -5.968894e-01 -1.000725e+01 239 243 146
-7.832967e-01 -7.401008e-01 -8.401093e+00 29 51 13
-2.008570e-01 -1.535246e+00 -8.864187e+00 165 171 98
-4.175844e-01 6.320417e-01 -8.371616e+00 58 57 0
-5.772330e-01 3.889832e-01 -8.383004e+00 6 12 0
-4.965488e-01 -4.381577e-01 -8.352963e+00 16 33 0
1.354226e+00 -1.130711e+00 -9.895220e+00 226 229 126
5.843396e-01 -1.349697e+00 -9.272332e+00 166 176 87
-4.623606e-01 -1.031296e+00 -8.752972e+00 84 86 21
-2.731817e-01 -1.400773e+00 -8.827645e+00 34 49 8
4.360145e-01 5.434427e-01 -8.904818e+00 56 54 2
-9.338768e-01 -1.228498e+00 -8.611298e+00 26 38 0
-7.623991e-01 -9.974443e-01 -8.750234e+00 45 61 19
-2.821684e-01 9.904297e-01 -8.207439e+00 116 83 5
-3.609067e-01 9.596764e-01 -8.216886e+00 121 80 6
-5.129129e-01 9.333089e-01 -8.274582e+00 122 66 4
-5.583662e-01 7.956137e-01 -8.302229e+00 105 61 9
-5.323397e-01 7.869915e-01 -8.306601e+00 90 58 6
-2.150409e+00 1.096153e+00 -1.333993e+01 229 227 123
2.138362e-01 6.059764e-01 -8.728971e+00 70 71 4
-2.701435e+00 5.264025e-01 -1.220718e+01 215 203 86
-2.066041e+00 -4.783162e-01 -1.021917e+01 231 220 104
7.218587e-01 -1.220108e+00 -9.560441e+00 161 171 85
-4.607754e-01 9.320512e-01 -8.252901e+00 153 106 22
-2.679929e+00 -6.337682e-03 -1.103024e+01 253 233 100
-2.679929e+00 -6.337682e-03 -1.103024e+01 253 233 100
6.964444e-01 -1.100905e-01 -9.498700e+00 66 74 23
6.371803e-01 -1.469605e-01 -9.401867e+00 69 70 2
-2.418597e+00 -7.334392e-01 -9.640340e+00 235 212 89
-8.337603e-01 -1.416338e+00 -8.745802e+00 66 73 28
-7.411749e-01 -1.429892e+00 -8.778966e+00 73 82 29
-5.809445e-01 8.474640e-01 -8.341619e+00 121 73 0
-3.458847e-01 4.906683e-01 -8.350353e+00 50 53 6
-3.860070e-01 -8.258924e-02 -8.330220e+00 13 29 3
-3.828009e-01 8.520545e-01 -8.317144e+00 50 47 2
3.055284e-01 6.766856e-01 -8.832585e+00 55 53 3
-6.060045e-01 -3.073570e-01 -8.396429e+00 13 29 2
9.493191e-01 -1.151827e+00 -9.714497e+00 190 196 96
-1.062022e+00 -1.124016e+00 -8.793659e+00 50 68 26
-5.455474e-01 6.412602e-01 -8.383279e+00 107 71 3
-6.681919e-01 5.051680e-01 -8.373692e+00 116 72 2
-6.192224e-01 3.598963e-01 -8.368497e+00 10 24 2
-6.436057e-01 6.636071e-02 -8.478867e+00 4 15 1
-4.591146e-01 -2.146073e-01 -8.274066e+00 17 33 2
5.191679e-01 -4.542366e-01 -9.403389e+00 77 76 10
-9.807089e-01 -1.005432e+00 -8.604428e+00 44 62 22
-4.048951e-01 1.752783e-01 -8.512033e+00 18 28 0
-5.381399e-01 1.056170e-01 -8.602039e+00 47 55 6
-2.373492e+00 -3.012572e-01 -1.055730e+01 244 223 95
-2.999369e-01 -9.715666e-02 -8.283017e+00 18 31 0
-1.098403e+00 -5.115710e-01 -8.871231e+00 231 236 136
-6.147938e-01 -4.716071e-01 -8.325066e+00 21 41 3
-5.015486e-01 3.556369e-01 -8.441843e+00 51 58 2
-5.011415e-01 1.954140e-01 -8.495165e+00 52 60 3
3.171839e-01 -3.986818e-01 -9.348222e+00 84 86 13
7.956562e-01 -5.272146e-01 -9.305809e+00 1 6 0
-2.313380e-01 1.003516e+00 -8.218816e+00 106 82 12
-4.149798e-01 9.316374e-01 -8.229689e+00 119 82 7
-5.155580e-01 6.690839e-01 -8.394641e+00 71 42 2
-2.600417e+00 4.104949e-01 -1.174344e+01 232 216 99
2.203084e+00 -4.650919e-01 -1.161541e+01 215 203 82
-2.289368e+00 -3.721581e-01 -1.030250e+01 194 170 46
-2.342514e+00 -5.102954e-01 -1.014213e+01 235 214 87
-6.883775e-01 -1.422747e+00 -8.725788e+00 84 92 32
-1.077862e+00 -1.395728e+00 -8.669268e+00 167 169 82
-3.130978e-02 1.035042e+00 -8.243428e+00 97 80 2
-1.977043e-01 1.008336e+00 -8.190506e+00 154 125 38
-4.016602e-01 1.023467e+00 -8.238730e+00 147 89 0
-5.880353e-01 4.809293e-01 -8.395156e+00 100 65 0
-2.180505e+00 8.121845e-01 -1.261542e+01 236 217 94
-2.146604e+00 9.503126e-03 -1.126130e+01 215 196 65
-2.741500e-01 -1.457202e+00 -8.820436e+00 65 70 15
-3.889016e-01 1.006160e+00 -8.234686e+00 220 170 41
-5.875639e-01 6.780377e-01 -8.334976e+00 122 73 4
-6.116863e-01 5.560875e-01 -8.351712e+00 131 83 13
-6.577466e-01 5.388511e-01 -8.356829e+00 130 78 9
-7.394951e-01 5.361485e-01 -8.386047e+00 122 73 0
-5.623450e-01 4.979445e-01 -8.372628e+00 91 58 0
-6.611000e-01 3.846235e-01 -8.323728e+00 17 30 4
-5.034342e-01 -1.648886e-01 -8.292978e+00 8 26 2
-1.949386e+00 -1.413026e-01 -1.133786e+01 232 218 85
6.476365e-01 -1.068921e+00 -9.649115e+00 96 107 45
-7.669279e-01 -1.393099e+00 -8.889671e+00 52 60 13
-4.153344e-01 -1.443678e+00 -8.950306e+00 86 94 35
1.480308e-01 8.585710e-01 -8.234331e+00 80 76 11
-7.279410e-01 6.125288e-01 -8.381902e+00 138 84 0
-4.246324e-01 4.982113e-01 -8.394192e+00 70 71 14
-7.354261e-01 4.744871e-01 -8.405916e+00 125 85 8
2.491789e+00 -3.962194e-02 -1.255543e+01 216 198 70
-2.513778e+00 -1.570064e-01 -1.082250e+01 238 220 94
-6.878528e-01 -4.255550e-01 -8.388664e+00 10 28 3
-6.540586e-01 -4.964144e-01 -8.344261e+00 27 45 17
-1.739546e-01 -1.386474e+00 -8.843652e+00 159 169 98
-2.098532e-02 9.082308e-01 -8.198838e+00 26 44 4
-1.416670e-01 7.914211e-01 -8.087525e+00 29 47 7
2.474396e+00 -6.046603e-01 -1.137175e+01 247 235 128
-2.128232e+00 -7.125412e-01 -9.855105e+00 248 247 155
-3.922690e-01 -9.213471e-01 -8.698365e+00 89 91 18
-1.908771e-01 -1.341892e+00 -8.858855e+00 38 50 0
2.340316e+00 -3.542786e-01 -1.181287e+01 222 206 80
5.277013e-01 3.494641e-01 -9.087977e+00 59 59 0
2.755818e+00 -2.671937e-01 -1.215309e+01 190 155 25
-1.381893e+00 -3.068058e-01 -8.908841e+00 230 216 83
-4.341316e-01 9.661524e-01 -8.245052e+00 170 116 21
-2.110760e+00 1.046360e+00 -1.328512e+01 214 202 73
-7.093606e-01 2.163305e-01 -8.419136e+00 7 24 0
-2.273478e+00 -4.327840e-01 -1.026366e+01 239 211 85
-4.158011e-01 9.275224e-01 -8.212829e+00 121 82 10
-2.309643e-02 9.013029e-01 -8.177867e+00 16 37 0
-2.210885e+00 -2.664334e-02 -1.117193e+01 200 180 45
-1.962464e+00 -2.530639e-01 -1.074006e+01 234 218 77
3.521886e-01 3.156717e-01 -8.902549e+00 65 66 0
-2.107844e+00 2.615603e-01 -1.170365e+01 231 214 72
3.274414e-01 9.317855e-02 -9.042469e+00 78 80 7
-3.833772e-01 9.775271e-01 -8.213572e+00 151 106 0
-5.207399e-01 2.505855e-01 -8.476550e+00 38 48 0
-5.863110e-01 7.284171e-01 -8.325116e+00 109 64 0
-6.903228e-01 4.944907e-01 -8.377871e+00 115 66 0
-1.188243e+00 -1.190388e+00 -8.566657e+00 220 226 128
-5.884250e-01 7.049798e-01 -8.328030e+00 114 67 0
-1.508752e+00 6.162021e-01 -1.270089e+01 203 184 55
-1.679769e+00 -6.157319e-02 -1.124117e+01 215 203 87
-2.066987e+00 -4.538996e-01 -1.035972e+01 227 213 101
1.078210e-01 9.361605e-01 -8.308005e+00 70 66 14
-1.389336e+00 2.980043e-01 -7.289991e+00 78 82 4
-1.452966e+00 1.233705e-01 -1.163393e+01 177 166 48
-2.068233e+00 -5.131785e-01 -1.023417e+01 253 253 154
2.114211e-01 -1.140991e+00 -9.362440e+00 77 83 33
-2.388278e-01 9.618508e-01 -8.224753e+00 73 65 9
3.874524e+00 -1.518887e-01 -1.248163e+01 95 104 53
-1.655595e+00 4.617947e-01 -1.228103e+01 195 176 48
-1.657920e+00 4.590715e-01 -1.229063e+01 195 176 48
-1.699778e+00 1.118183e+00 -1.371670e+01 244 228 93
-3.185419e-01 -1.531938e+00 -8.841042e+00 140 150 79
-1.741292e+00 7.857214e-01 -1.289063e+01 233 215 87
-6.353917e-01 -5.361071e-01 -8.346731e+00 13 36 0
-4.203594e-01 -1.145128e+00 -8.810376e+00 59 62 5
-7.541017e-01 -4.001575e-01 -8.358158e+00 13 31 0
-5.855269e-01 4.054893e-01 -8.427718e+00 14 13 9
-2.074842e+00 -1.220938e-01 -1.093201e+01 238 220 94
-1.851404e+00 -6.281592e-01 -1.008053e+01 243 247 162
1.066487e+00 -1.494709e+00 -8.988408e+00 205 217 117
-2.780521e-01 -1.512531e+00 -8.600978e+00 174 186 104
-4.122460e-01 1.263376e+00 -8.638169e+00 234 178 9
-2.275548e-01 1.002940e+00 -8.213489e+00 110 79 10
4.999538e+00 6.699820e-01 -1.632396e+01 83 85 75
-6.899531e-01 2.284587e-01 -8.400023e+00 10 22 4
-2.429331e+00 -2.083792e-01 -1.071636e+01 245 225 94
-2.461778e+00 -5.945073e-01 -9.916960e+00 206 177 47
-3.105274e-01 -1.381186e+00 -8.781116e+00 37 50 10
-1.983091e-01 1.015393e+00 -8.206322e+00 157 118 27
-2.681709e+00 -4.405816e-02 -1.104380e+01 229 209 78
-2.707575e+00 8.349527e-02 -1.123693e+01 233 210 73
-2.209636e+00 -2.507441e-02 -1.116972e+01 200 180 45
8.962237e-01 -1.280566e+00 -9.446957e+00 198 209 107
-2.708762e+00 -3.496184e-01 -1.039215e+01 248 224 92
7.726837e-01 -3.356605e-01 -9.459081e+00 228 234 136
-3.928256e-01 -1.386221e+00 -8.762950e+00 85 92 43
3.640024e+00 2.065940e-02 -1.284175e+01 195 182 71
2.941552e+00 2.801001e-01 -1.319654e+01 168 147 40
2.880978e+00 3.252569e-01 -1.320286e+01 217 197 68
-3.452727e-01 9.672566e-01 -8.201927e+00 120 84 11
-3.261648e-01 9.575163e-01 -8.219507e+00 90 64 0
8.473025e+00 2.037401e+00 -1.842432e+01 142 172 163
-8.360047e-01 4.711717e-01 -8.509957e+00 38 51 4
-1.817226e+00 -1.894763e-01 -1.089288e+01 217 205 88
-2.565265e+00 -3.782329e-01 -1.035059e+01 187 172 43
8.554860e+00 2.144349e+00 -1.859518e+01 227 255 251
8.231742e+00 2.085831e+00 -1.846258e+01 128 161 140
-2.243304e+00 8.464925e-02 -1.123184e+01 237 219 95
-2.723866e+00 -1.399507e-01 -1.079415e+01 244 232 96
-2.571010e-01 -1.383278e+00 -8.807087e+00 40 54 18
-7.934899e-01 5.420601e-01 -8.456064e+00 135 90 0
-1.735159e+00 -3.557307e-02 -1.125617e+01 236 217 96
-2.117872e+00 2.693918e-01 -1.182072e+01 234 214 91
-1.710250e+00 8.656683e-02 -1.152520e+01 229 214 88
9.387177e-01 -1.097388e+00 -9.825357e+00 185 197 110
-1.744146e+00 6.273804e-01 -1.259599e+01 216 197 69
-1.797607e+00 -1.307291e-01 -1.109007e+01 224 209 88
-6.179255e-01 1.947627e+00 -1.312050e+01 97 103 58
-6.163584e-01 1.852734e+00 -1.320817e+01 13 21 0
-1.266636e+00 1.206815e+00 -1.380331e+01 191 165 44
-1.035510e+00 1.138350e+00 -1.385485e+01 215 186 68
-2.209030e+00 9.622800e-01 -1.305698e+01 197 182 80
-1.523113e+00 6.405122e-01 -1.268777e+01 228 195 79
-1.147422e+00 4.410817e-01 -1.238253e+01 179 159 45
-1.147422e+00 4.410817e-01 -1.238253e+01 179 159 45
3.376021e+00 -6.422660e-01 -1.142448e+01 192 159 60
3.111362e+00 -6.880764e-01 -1.128043e+01 191 161 63
-1.515315e+00 7.836420e-02 -1.158294e+01 191 168 55
2.795461e+00 -9.883839e-01 -1.048530e+01 240 219 121
3.788668e-01 -5.287157e-01 -9.276781e+00 88 84 13
-4.029203e-01 -1.494881e+00 -8.766363e+00 115 121 59
-3.120289e-01 -1.524174e+00 -8.725633e+00 157 159 89
-1.998369e-01 1.013065e+00 -8.199413e+00 160 126 36
-5.919493e-01 1.830615e+00 -1.334013e+01 134 142 104
-8.975099e-01 6.852835e-01 -8.841867e+00 151 113 42
-1.203250e+00 1.563859e+00 -1.452582e+01 250 228 109
-1.218266e+00 1.548263e+00 -1.446747e+01 255 233 113
3.857879e+00 -4.295605e-01 -1.190374e+01 225 189 92
-9.238064e-01 5.322000e-01 -1.258785e+01 204 179 60
3.667376e+00 -6.469766e-01 -1.161166e+01 213 179 73
-2.485487e+00 6.922271e-01 -1.248504e+01 216 204 90
3.069680e+00 -7.589569e-01 -1.116039e+01 193 165 68
2.996714e+00 -9.101286e-01 -1.076001e+01 189 162 62
-2.186325e+00 1.042090e-02 -1.115113e+01 253 228 107
1.665043e-01 -6.937356e-01 -9.175792e+00 82 79 10
-2.202536e+00 -3.568412e-01 -1.052362e+01 236 211 85
-2.029117e-01 1.036878e+00 -8.210200e+00 142 96 0
6.095307e-01 8.897519e-01 -8.540791e+00 43 50 15
1.297592e-01 4.893062e-01 -7.733343e+00 25 34 4
-6.400259e-01 1.913219e+00 -1.317056e+01 28 36 0
-6.537732e-01 5.365247e-01 -8.354617e+00 128 79 0
-7.919824e-01 5.508384e-01 -8.445030e+00 148 85 0
-2.302496e-01 9.635881e-02 -8.314374e+00 37 47 7
4.262516e+00 -3.012666e-01 -1.236865e+01 144 116 36
-2.178281e+00 6.880251e-01 -1.246473e+01 242 216 93
8.802602e-01 -3.356877e-01 -9.229319e+00 28 32 5
-1.934354e+00 2.768116e-01 -1.179431e+01 255 229 110
3.501012e+00 -1.117057e+00 -1.060078e+01 198 162 50
2.848952e+00 -1.121093e+00 -1.040500e+01 213 195 83
-9.434756e-01 -5.982763e-01 -8.486133e+00 49 61 24
8.358054e-01 -1.165723e+00 -9.680594e+00 180 178 89
-9.207885e-01 -9.592475e-01 -8.486472e+00 34 48 13
4.605617e-01 -1.536582e+00 -8.876587e+00 193 194 101
-6.732304e-01 9.051097e-01 -8.448445e+00 206 127 0
-7.125038e-01 8.582434e-01 -8.440150e+00 218 141 3
-7.532405e-01 7.130471e-01 -8.436964e+00 176 104 4
-1.440477e+00 1.222601e+00 -1.385362e+01 241 216 95
4.380430e+00 -3.227475e-01 -1.226238e+01 126 101 21
-1.902960e+00 9.103724e-01 -1.337187e+01 253 227 106
-1.876378e+00 7.672411e-01 -1.276693e+01 236 210 89
-1.357783e+00 3.034160e-01 -1.207226e+01 236 215 93
3.662284e+00 -9.680997e-01 -1.081359e+01 191 153 46
7.442282e-01 -5.962330e-01 -9.598582e+00 2 8 0
-2.139697e+00 7.392264e-02 -1.138235e+01 255 231 110
5.449226e-01 -1.411278e+00 -9.167498e+00 184 183 93
-2.587005e-01 -1.500132e+00 -8.821605e+00 94 95 35
-1.022755e+00 -1.207721e+00 -8.531501e+00 38 52 14
-7.367534e-01 8.232885e-01 -8.461814e+00 188 114 0
-6.520653e-01 7.218723e-01 -8.309712e+00 164 104 2
-4.264327e-01 5.267544e-01 -8.370236e+00 52 45 0
-7.378519e-01 5.478536e-01 -8.404567e+00 117 61 0
-1.098117e+00 1.200233e+00 -1.378232e+01 231 200 84
-1.148508e+00 1.077749e+00 -1.360099e+01 209 177 59
-1.701586e+00 1.105864e+00 -1.366716e+01 251 226 108
-1.208157e+00 8.859418e-01 -1.321989e+01 225 195 75
-2.000946e+00 6.434586e-01 -1.254375e+01 235 213 93
-1.709054e+00 5.187217e-01 -1.243564e+01 253 222 105
3.584953e+00 -6.660691e-01 -1.158940e+01 219 187 84
-1.410797e+00 3.868114e-01 -1.218787e+01 226 204 82
-5.538245e-01 -2.186885e-01 -8.276929e+00 23 32 4
-2.400559e+00 1.388434e-01 -1.142527e+01 246 229 97
-7.256481e-01 -4.800077e-01 -8.396660e+00 27 37 12
-6.424809e-01 -5.929266e-01 -8.356818e+00 33 45 6
7.766636e-01 -1.364818e+00 -9.288621e+00 196 193 100
-5.712730e-01 6.165891e-01 -8.368034e+00 126 83 3
-5.080372e-01 6.145738e-01 -8.399962e+00 49 23 0
-6.718294e-01 5.053018e-01 -8.367727e+00 118 70 4
-6.734314e-01 5.052583e-01 -8.361259e+00 118 70 4
-5.477135e-01 4.767810e-01 -8.386600e+00 74 44 0
-7.779567e-01 5.082205e-01 -8.449298e+00 144 89 0
-8.109167e-01 4.757365e-01 -8.486102e+00 34 23 0
-7.059359e-01 2.830718e-01 -8.414657e+00 31 48 16
-7.059359e-01 2.830718e-01 -8.414657e+00 31 48 16
-3.101776e-01 -1.013273e-01 -8.322966e+00 30 36 0
-3.850962e-01 -1.268026e-01 -8.297433e+00 30 40 5
-4.530611e-01 -2.200115e-01 -8.308675e+00 29 39 4
-7.535995e-01 -3.024231e-01 -8.324721e+00 33 46 14
-7.222251e-01 -3.284126e-01 -8.305527e+00 18 28 1
-8.431077e-01 -5.257020e-01 -8.416734e+00 21 32 0
-7.524924e-01 -6.597678e-01 -8.415840e+00 29 47 9
-2.212117e+00 -4.007148e-01 -1.040336e+01 239 214 89
-1.338957e+00 -1.081052e+00 -9.309744e+00 233 228 136
-6.526754e-01 9.533936e-01 -8.454639e+00 228 149 4
-6.842107e-01 8.357268e-01 -8.411015e+00 217 140 0
-6.124128e-01 -4.786684e-01 -8.360029e+00 34 48 12
-5.712502e-01 -5.663895e-01 -8.371876e+00 30 38 1
-8.104688e-01 -6.373516e-01 -8.394811e+00 1 15 0
7.241684e-01 -1.457773e+00 -9.044480e+00 210 207 114
-6.217656e-01 2.643715e-01 -8.397670e+00 1 5 1
-7.328821e-01 2.743991e-01 -8.457936e+00 30 50 15
-7.335398e-01 2.746701e-01 -8.454603e+00 30 50 15
3.112753e+00 -6.997462e-01 -1.114824e+01 186 156 56
-5.043850e-01 -4.589598e-01 -8.377928e+00 24 34 0
7.635750e-01 -7.916098e-01 -9.615957e+00 17 20 3
8.552217e-01 -1.174917e+00 -9.607921e+00 195 191 100
-1.371183e+00 5.685989e-01 -1.281554e+01 237 215 93
-5.705662e-01 4.862452e-01 -8.400647e+00 103 64 0
-2.293461e+00 -1.639165e-01 -1.087186e+01 247 213 89
-2.417913e+00 -2.605591e-01 -1.063629e+01 254 226 104
-2.254768e+00 -4.067462e-01 -1.031982e+01 244 209 83
-9.599636e-01 -1.024294e+00 -9.418092e+00 100 98 38
-3.266854e-02 1.019522e+00 -8.241930e+00 96 78 21
-6.672076e-01 1.878844e+00 -1.537682e+01 232 214 112
-5.012262e-01 1.003486e+00 -8.442215e+00 207 124 0
-6.331587e-01 1.529313e+00 -1.461449e+01 214 177 62
-4.017889e-01 9.377379e-01 -8.243074e+00 123 77 5
-1.184940e+00 1.181617e+00 -1.377476e+01 237 200 70
-5.293829e-01 9.782248e-01 -1.364179e+01 114 90 24
-1.253603e+00 6.484250e-01 -1.274518e+01 215 178 43
-1.484518e+00 6.753340e-01 -1.269300e+01 230 189 55
-1.437740e+00 6.578861e-01 -1.284974e+01 214 175 40
-6.021631e-01 4.043740e-01 -1.233980e+01 205 163 27
-1.791307e+00 5.999317e-01 -1.243305e+01 225 190 56
-3.996796e-01 1.114798e-01 -8.131272e+00 35 39 6
-2.386991e+00 -2.037065e-01 -1.069373e+01 199 168 41
-2.386991e+00 -2.037065e-01 -1.069373e+01 199 168 41
-1.234441e+00 2.022952e+00 -1.547227e+01 235 226 130
-6.945156e-01 7.525562e-01 -8.396707e+00 177 100 4
-2.130768e+00 1.053266e+00 -1.334847e+01 215 187 68
-5.261763e-01 5.366828e-01 -8.410451e+00 63 33 0
-4.695848e-01 3.274148e-01 -1.229697e+01 198 160 28
9.853945e-01 -2.691947e-01 -9.345838e+00 4 9 0
-2.331585e-01 -1.461657e+00 -8.766749e+00 153 153 90
-1.239679e+00 1.215202e+00 -1.372662e+01 199 164 36
-8.664101e-01 8.688276e-01 -1.333054e+01 213 175 50
-9.953136e-01 5.855130e-01 -1.268764e+01 185 148 18
-2.198697e+00 7.870625e-01 -1.271713e+01 230 193 60
3.419546e+00 -3.992912e-01 -1.195948e+01 191 155 43
3.482625e+00 -4.728214e-01 -1.181683e+01 194 153 39
3.610748e-01 2.234931e+00 -1.303548e+01 7 1 5
-6.104239e-01 9.618913e-01 -8.428489e+00 189 103 0
-2.571300e+00 1.338889e-01 -1.134718e+01 241 206 76
-2.513494e+00 7.661687e-02 -1.128103e+01 236 201 73
-2.683218e+00 1.112332e-03 -1.106844e+01 255 227 97
4.177584e-01 -1.329388e+00 -9.347220e+00 174 167 87
-4.936376e-01 9.491474e-01 -8.252974e+00 99 30 0
-1.686006e+00 1.264208e+00 -1.398057e+01 245 213 78
-7.335836e-01 4.788494e-01 -8.393535e+00 130 81 4
-1.640161e+00 1.827791e-01 -1.168903e+01 228 199 61
-2.397174e+00 2.244654e-01 -1.142918e+01 236 203 72
-1.107889e+00 7.464681e-01 -1.291947e+01 209 172 40
-1.439912e+00 -1.092150e+00 -9.285009e+00 238 232 138
-1.433293e+00 -9.385391e-01 -9.589918e+00 229 223 127
-7.180043e-01 -2.872296e-01 -8.567785e+00 1 8 0
-2.457786e+00 -3.997570e-01 -1.037094e+01 251 220 98
-5.978191e-02 -1.725744e+00 -9.090837e+00 190 181 102
-1.586182e+00 6.931108e-01 -1.267593e+01 214 170 37
-2.516291e+00 -6.844223e-02 -1.106488e+01 254 226 101
-1.231636e+00 9.291763e+00 -3.796340e+01 57 69 27
-3.559935e+00 1.095499e+01 -4.019053e+01 76 86 56
-5.694898e-01 1.069379e+01 -4.104632e+01 0 6 0
-3.245748e+00 1.036149e+01 -4.037422e+01 3 15 0
-3.111747e+00 1.008959e+01 -4.056381e+01 96 106 53
-7.068180e+00 4.987320e+00 -3.049033e+01 87 95 26
5.196773e+00 2.657242e+00 -1.871850e+01 223 214 109
-6.775895e+00 4.441348e+00 -2.981915e+01 88 104 37
-6.429995e+00 3.790079e+00 -2.908132e+01 110 128 66
1.547377e+00 1.200379e+01 -4.524131e+01 106 122 75
-3.057910e+00 1.039610e+01 -4.045975e+01 131 141 104
-4.150834e+00 1.008249e+01 -4.059366e+01 84 100 51
-5.137702e+00 5.979063e+00 -3.219320e+01 44 53 0
-3.575271e+00 9.929088e+00 -4.035066e+01 91 106 50
5.512786e+00 1.900975e+01 -4.779539e+01 189 214 132
9.309904e+00 1.888068e+01 -4.822236e+01 217 233 143
5.439371e+00 2.642067e+00 -1.885356e+01 215 203 93
4.271511e+00 1.534337e+00 -1.612707e+01 18 23 4
2.294750e+01 5.779277e+00 -4.911775e+01 99 112 81
2.385588e+01 5.977423e+00 -5.122064e+01 17 32 7
3.699941e+00 9.213171e-01 -1.473121e+01 28 35 11
5.101552e+00 7.556960e-01 -1.496091e+01 110 119 88
4.603748e+00 6.341664e-01 -1.438339e+01 9 20 0
4.532626e+00 5.249869e-01 -1.415878e+01 4 7 2
3.950827e+00 2.123119e-01 -1.349650e+01 175 160 47
3.811971e+00 1.283124e-01 -1.317430e+01 147 131 33
3.513891e+00 7.062642e-01 -1.421065e+01 57 57 5
3.318247e+00 6.835881e-01 -1.410454e+01 193 187 97
7.236431e+00 1.845359e+01 -4.704875e+01 184 202 126
3.978596e+00 3.516856e-01 -1.368731e+01 112 99 3
4.297439e+00 2.700573e-01 -1.365721e+01 124 109 17
7.312167e+00 1.810722e+01 -4.707913e+01 82 98 23
3.762544e+00 8.368473e-01 -1.454326e+01 7 10 1
5.510398e+00 2.428012e+00 -1.843035e+01 171 160 55
8.605889e-01 2.017905e+01 -4.862139e+01 173 207 126
2.377872e+01 1.524665e+01 -4.319476e+01 162 152 98
9.584632e+00 1.914428e+01 -4.931234e+01 151 169 82
2.005955e+00 1.580790e+01 -4.289729e+01 163 173 79
-4.645784e-01 1.560148e+01 -4.445081e+01 162 159 116
-2.102534e+00 1.628778e+01 -4.585574e+01 2 9 0
-3.122502e+00 1.367322e+01 -4.036868e+01 117 126 103
-3.122502e+00 1.367322e+01 -4.036868e+01 117 126 103
-1.812657e+00 1.576068e+01 -4.639876e+01 150 159 127
-3.841523e+00 1.238498e+01 -4.028489e+01 70 91 33
-3.751687e+00 1.135278e+01 -3.960564e+01 78 96 52
-3.466579e+00 1.119167e+01 -4.067249e+01 4 13 0
3.041188e+00 1.948487e+01 -4.788626e+01 189 219 139
1.274003e+00 1.453834e+01 -3.966277e+01 56 67 0
1.274003e+00 1.453834e+01 -3.966277e+01 56 67 0
2.116486e+00 1.576836e+01 -4.319850e+01 123 129 25
-3.256290e+00 1.511725e+01 -4.077765e+01 84 85 9
-1.992442e+00 1.616285e+01 -4.497991e+01 64 70 21
-2.694476e+00 1.547959e+01 -4.422575e+01 18 32 0
-1.936875e+00 1.586720e+01 -4.627221e+01 8 21 0
-3.160878e+00 1.347888e+01 -4.040759e+01 7 19 1
-1.991420e+00 1.545571e+01 -4.620278e+01 1 8 0
-1.991420e+00 1.545571e+01 -4.620278e+01 1 8 0
-2.310564e+00 1.485086e+01 -4.660790e+01 156 166 109
-3.749841e+00 1.232054e+01 -4.061366e+01 13 31 0
-2.697800e+00 1.455442e+01 -4.360917e+01 159 182 130
-2.697800e+00 1.455442e+01 -4.360917e+01 159 182 130
-3.201467e+00 1.312134e+01 -4.023392e+01 157 170 126
1.218036e+01 5.358629e+00 -2.520711e+01 4 14 0
-3.585531e+00 1.111470e+01 -4.089004e+01 74 86 54
1.659204e+01 6.920562e+00 -2.880028e+01 236 254 244
-3.890260e+00 9.525460e+00 -3.990329e+01 87 107 54
7.867404e+00 1.478375e+00 -1.710127e+01 68 98 73
-1.886267e+00 1.609599e+01 -4.562285e+01 5 14 0
-2.416770e+00 1.566760e+01 -4.462165e+01 159 171 115
-2.749583e+00 1.818619e+01 -4.583463e+01 16 28 3
-1.311385e+00 1.692259e+01 -4.371853e+01 12 16 0
-2.468728e+00 1.520194e+01 -4.036407e+01 255 255 189
-3.538813e+00 1.104769e+01 -3.932816e+01 1 14 5
-3.818132e+00 1.054156e+01 -4.038750e+01 1 7 1
-2.752712e+00 1.550149e+01 -4.265456e+01 17 20 0
-2.961017e+00 1.435561e+01 -4.248865e+01 2 12 4
-6.110908e-01 1.954689e+00 -1.314763e+01 97 103 58
-1.741152e+00 -1.947571e-01 -1.092869e+01 255 250 150
1.867389e+01 1.465272e+00 -3.019835e+01 72 103 68
5.343443e+00 -3.570058e-01 -1.251807e+01 123 97 10
4.401913e+00 -3.600790e-01 -1.222040e+01 141 110 27
5.159613e+00 -5.606358e-01 -1.210414e+01 132 103 9
-1.613539e+00 7.659715e-01 -1.284812e+01 207 176 59
4.320209e+00 -9.491529e-01 -1.111584e+01 196 163 56
2.619749e+01 8.104830e+00 -3.196285e+01 152 204 166
5.033191e+00 -2.767553e-01 -1.254385e+01 130 106 19
5.033191e+00 -2.767553e-01 -1.254385e+01 130 106 19
5.290110e+00 -4.042003e-01 -1.255356e+01 190 165 66
5.290110e+00 -4.042003e-01 -1.255356e+01 190 165 66
4.905416e+00 -4.734666e-01 -1.209332e+01 116 85 3
4.818497e+00 -3.220591e-01 -1.238365e+01 204 181 86
3.830296e+00 -1.013971e+00 -1.069397e+01 195 158 51
2.530268e+01 7.264429e+00 -2.979979e+01 159 216 175
4.664052e+00 -4.095092e-01 -1.220410e+01 120 92 10
-6.799086e-01 -4.159301e-01 -8.374276e+00 18 28 1
-1.910600e+00 -1.030633e-01 -1.111153e+01 235 210 91
-1.689114e+00 1.762835e+00 -1.617282e+01 156 152 63
-2.378018e+00 -2.743715e-01 -1.065570e+01 254 220 100
-1.694172e-01 -1.194727e+00 -8.896668e+00 142 138 67
-1.718404e+00 1.414864e+00 -1.340083e+01 239 217 97
-4.703437e-01 8.759728e-01 -8.249315e+00 84 49 0
-2.389420e+00 7.431519e-02 -1.130280e+01 228 198 68
-1.843305e+00 3.670603e-01 -1.203408e+01 253 223 89
-2.416426e+00 -7.200492e-01 -9.625032e+00 242 211 87
-6.241000e-01 1.058398e+00 -1.366680e+01 208 176 63
-1.905283e+00 8.474436e-01 -1.292628e+01 255 226 90
-1.307260e+00 6.064532e-01 -1.265321e+01 248 212 76
-2.229838e+00 6.630331e-01 -1.245046e+01 244 207 74
-2.054383e+00 1.595933e-01 -1.155314e+01 255 224 91
4.086777e-01 2.141842e+00 -1.292660e+01 87 82 45
-9.570560e-02 1.304527e+00 -1.321874e+01 154 147 76
-1.682526e+00 1.257338e+00 -1.389929e+01 245 213 78
5.708286e-01 -1.428555e+00 -9.103960e+00 201 194 106
1.313630e+00 -1.129474e+00 -9.809901e+00 230 222 131
-2.123017e+00 -4.982973e-01 -1.026430e+01 244 218 92
-1.372587e+00 5.292873e-01 -1.258818e+01 243 209 73
-1.921797e+00 3.781647e-01 -6.028587e+00 206 165 49
8.866326e-01 -1.452279e-01 -9.489806e+00 241 232 144
-1.392027e-01 9.971105e-01 -8.178943e+00 128 106 29
-3.120593e-01 9.823169e-01 -8.232271e+00 126 80 7
-3.832545e-01 9.505138e-01 -8.226140e+00 133 79 10
3.818500e-01 2.405332e+00 -1.310139e+01 119 120 64
8.906087e-02 3.687052e+00 -1.903401e+01 133 123 44
-4.179782e-01 1.702280e+00 -1.293083e+01 32 31 10
-1.109169e+00 1.646906e+00 -1.470299e+01 254 222 93
3.661527e+00 -4.905098e-01 -1.167877e+01 197 159 58
-5.866991e-01 -6.255710e-02 -8.570056e+00 25 31 4
3.577570e+00 -9.085128e-01 -1.080120e+01 189 159 47
-1.577081e+00 3.507246e-02 -1.136189e+01 191 167 45
-2.245344e+00 -4.632417e-01 -1.025807e+01 252 218 92
-2.308445e+00 -5.478066e-01 -1.009394e+01 249 215 92
-2.647471e-01 9.812686e-01 -8.210191e+00 95 59 0
4.154550e-01 2.326202e+00 -1.311580e+01 129 126 78
1.185901e-01 3.733522e+00 -1.896268e+01 241 230 142
7.965923e+00 -1.264659e-01 -1.765856e+01 124 99 16
4.428538e+00 -3.780567e-01 -1.237773e+01 187 156 58
4.129892e+00 -4.175729e-01 -1.210371e+01 186 152 44
2.754236e-02 5.576981e-01 -1.291649e+01 163 129 17
2.981677e+00 -8.263749e-01 -1.084462e+01 237 217 123
-2.313563e+00 -5.254115e-01 -1.013063e+01 232 198 75
-2.392086e+00 -7.236016e-01 -9.705410e+00 241 216 91
-5.730370e-01 1.028321e+00 -8.392509e+00 238 153 7
-7.416289e-01 7.292006e-01 -8.401825e+00 187 104 3
-8.566462e-01 6.372075e-01 -8.656885e+00 170 98 0
9.308416e-02 1.376698e+00 -1.312531e+01 65 62 3
9.308416e-02 1.376698e+00 -1.312531e+01 65 62 3
1.730580e-01 1.252543e+00 -1.319576e+01 66 67 5
1.730580e-01 1.252543e+00 -1.319576e+01 66 67 5
-1.505819e+00 2.803872e-01 -8.007435e+00 29 21 2
-4.530805e-01 7.712414e-01 -1.327636e+01 144 114 0
7.330184e-01 -6.005514e-01 -9.567742e+00 4 2 0
-1.614759e+00 -1.867065e-02 -1.134421e+01 194 171 48
-8.317536e-01 5.781331e-01 -8.523353e+00 164 90 0
-8.717539e-01 4.533184e-01 -8.467291e+00 42 47 7
-1.464214e+00 1.404501e+00 -1.413908e+01 246 215 91
-3.176171e-01 4.009041e-01 -1.253698e+01 212 173 37
3.374818e+00 -8.179862e-01 -1.090096e+01 207 180 67
-1.845625e+00 2.998500e-01 -1.193190e+01 214 183 56
-6.360355e-01 -8.463998e-01 -8.453434e+00 49 55 17
-1.080322e+00 -1.381904e+00 -8.813193e+00 163 155 82
-7.795087e-01 6.925423e-01 -8.412333e+00 174 94 0
1.747359e-02 1.338592e+00 -1.320810e+01 54 61 15
4.210329e+00 -8.529402e-01 -1.143430e+01 211 181 69
-1.721469e+00 5.083047e-01 -1.233380e+01 252 222 92
-2.090970e+00 2.485977e-01 -1.156542e+01 247 214 88
-1.887145e+00 -1.584839e-01 -1.093358e+01 244 215 88
-1.961074e+00 -2.504165e-01 -1.081236e+01 243 214 84
-8.271181e-01 5.340773e-01 -8.522819e+00 168 103 12
-3.900745e-02 1.450537e+00 -1.319461e+01 147 143 70
-3.900745e-02 1.450537e+00 -1.319461e+01 147 143 70
-5.931739e-01 2.658761e-01 -8.489449e+00 4 6 0
-1.876421e+00 -2.371625e-01 -1.078940e+01 232 202 84
5.978208e-01 -1.427601e+00 -9.014498e+00 200 194 106
-1.154994e+00 -1.048165e+00 -9.421325e+00 218 209 112
-1.098655e+00 -1.352189e+00 -8.910809e+00 166 159 79
-9.005567e-01 5.830129e-01 -8.912662e+00 162 157 76
-5.192257e-01 2.236108e-01 -8.496378e+00 64 62 10
-7.950802e-01 2.136532e-01 -8.505079e+00 18 31 1
-1.782189e+00 -1.407782e-01 -1.104392e+01 225 199 75
-9.573090e-01 -5.923573e-01 -9.013819e+00 61 70 27
-7.525519e-01 -6.566653e-01 -8.394649e+00 35 46 17
-6.298396e-01 1.032884e+00 -8.454927e+00 195 103 2
-8.987007e-01 -8.967137e-01 -8.454280e+00 36 47 17
-3.527470e-02 1.202403e+00 -1.331594e+01 153 146 66
-4.809007e-01 7.482062e-01 -1.334988e+01 168 131 13
-6.207752e-01 3.796124e-01 -8.527261e+00 9 18 0
4.311542e-01 -1.511071e+00 -8.836776e+00 200 194 106
-7.990860e-01 6.853827e-01 -8.671358e+00 186 107 2
3.301356e+01 2.294065e+00 -4.714812e+01 68 92 56
-7.791933e-01 4.403845e-01 -8.463356e+00 27 31 7
-2.414031e-01 9.380352e-01 -1.315336e+01 25 18 1
-3.360556e-01 1.220100e+00 -1.316641e+01 30 29 0
-7.658733e-01 6.273565e-01 -8.415812e+00 176 100 6
8.435426e+00 9.095832e+00 -2.963101e+01 53 60 8
6.709120e+00 7.512287e+00 -2.701534e+01 54 59 41
-8.943008e-02 1.685591e+00 -1.298678e+01 13 17 0
-8.943008e-02 1.685591e+00 -1.298678e+01 13 17 0
8.402534e-01 1.134236e+00 -1.302605e+01 91 89 12
8.402534e-01 1.134236e+00 -1.302605e+01 91 89 12
4.680328e+00 -1.013482e+00 -1.095889e+01 202 173 56
-1.357006e-01 4.187437e-01 -1.266129e+01 183 146 6
-1.192785e+00 4.363242e-01 -1.235983e+01 236 215 90
-1.381146e+00 2.167442e-01 -1.188500e+01 215 186 66
-2.297775e+00 -4.286210e-01 -1.033551e+01 198 166 47
-8.827001e-01 2.853838e-01 -8.539698e+00 25 42 9
-2.273770e+00 -4.746152e-01 -1.026922e+01 228 201 70
-8.442215e-01 4.785732e-01 -8.564799e+00 36 44 5
6.449247e-01 1.180105e+00 -1.306465e+01 92 90 16
4.426360e+00 -9.942450e-01 -1.083780e+01 185 155 40
3.580043e+00 -1.354885e+00 -9.991152e+00 191 170 53
4.173804e-01 1.253418e+00 -1.313818e+01 113 113 41
8.110816e-01 1.138093e+00 -1.304645e+01 90 88 11
8.110816e-01 1.138093e+00 -1.304645e+01 90 88 11
-9.467985e-02 1.162554e+00 -1.338009e+01 140 140 72
-9.467985e-02 1.162554e+00 -1.338009e+01 140 140 72
3.179169e-01 7.270613e-01 -1.337180e+01 107 87 21
3.391150e-01 5.749957e-01 -1.308776e+01 124 97 0
-2.228852e+00 -4.656736e-01 -1.031538e+01 246 222 88
5.503317e-01 2.373169e+00 -1.320134e+01 4 6 0
5.414496e-01 2.178162e+00 -1.296412e+01 3 3 9
-7.423934e-01 5.439642e-01 -8.400618e+00 101 43 1
7.514140e-01 1.084971e+00 -1.312733e+01 140 138 61
5.771810e+00 -7.459647e-01 -1.168398e+01 96 84 2
6.533033e-01 5.961789e-01 -1.321072e+01 94 74 4
-2.302335e+00 -1.105455e-01 -1.094053e+01 197 173 46
-8.571801e-01 5.118217e-01 -8.580212e+00 39 30 0
2.001163e-01 1.393824e+00 -1.313385e+01 150 153 81
3.536808e-01 1.348254e+00 -1.308566e+01 153 155 77
2.645739e-01 1.292554e+00 -1.316258e+01 43 53 7
2.645739e-01 1.292554e+00 -1.316258e+01 43 53 7
-1.234741e+00 3.353368e-01 -1.216157e+01 163 136 18
-9.269313e-01 -6.479004e-01 -8.476415e+00 19 32 1
-9.120301e-01 -7.180315e-01 -8.480792e+00 24 38 5
-2.400030e+00 -4.210213e-01 -1.035743e+01 237 209 86
-6.593029e-02 6.032335e-01 -1.301160e+01 155 126 7
8.925622e-02 1.279867e+00 -1.327586e+01 149 159 96
-5.053924e-02 3.217114e-01 -4.516338e+00 0 255 0
-5.324742e-02 3.186660e-01 -4.566172e+00 255 255 0
-7.635470e-02 -4.036286e-01 -4.715299e+00 255 0 0
-7.584331e-02 -3.999246e-01 -4.765159e+00 255 255 0
-6.747428e-01 -3.694199e-01 -4.542784e+00 0 255 0
-6.677002e-01 -3.663297e-01 -4.592189e+00 255 255 0
-1.501577e+00 -2.891980e-01 -4.752766e+00 255 0 0
-1.485834e+00 -2.870594e-01 -4.800175e+00 255 255 0
-1.587819e+00 8.378444e-01 -4.965378e+00 0 255 0
-1.578078e+00 8.292123e-01 -5.013655e+00 255 255 0
-2.156428e+00 -1.642049e-01 -4.805995e+00 255 0 0
-2.139108e+00 -1.622428e-01 -4.852858e+00 255 255 0
-2.696584e+00 4.264593e-02 -5.178436e+00 0 255 0
-2.672721e+00 4.184057e-02 -5.222367e+00 255 255 0
-3.572782e+00 6.213569e-01 -6.079547e+00 255 0 0
-3.540096e+00 6.144514e-01 -6.116748e+00 255 255 0
